0;0;0;0;0;0;0;0;0;0;0;0;0;0;0;0;0;0;0;0;0;0;0;0;0;0;0;0;0;0;0;0;0;0;0;0;0;0;0;0;0;0;0;0;0;0;0;0;0;0;0;0;0;0;0;0;0;0;0;0;0;0;0;0;0;0;0;0;0;0;0;0;0;0;0;0;0;0;0;0;0;0;0;0;0;0;0;0;0;0;0;0;0;0;0;0;0;0;0;0;0;0;0;0;0;0;0;0;0;0;0;0;0;0;0;0;0;0;0;0;0;0;1364;1359;1354;1347;1340;1324;1286;1246;1246;1209;1178;1141;1100;1100;1043;1037;1089;1122;1122;1148;1134;1155;1203;1229;1229;1245;1247;1249;1257;1257;1261;1258;1266;1284;1284;1304;1331;1320;1320;1320;1338;1325;1292;1242;1242;1180;1128;1078;1029;962;962;904;842;791;743;743;690;640;626;597;597;560;527;541;587;587;629;669;717;658;658;592;521;473;427;394;394;353;303;280;280;280;319;338;370;400;400;442;497;559;611;611;685;725;768;835;894;894;920;896;843;803;803;741;683;640;613;607;560;553;520;483;483;480;480;446;477;477;520;528;525;502;513;513;509;504;502;520;520;561;607;610;657;657;678;685;664;649;649;657;680;698;714;681;681;718;720;724;764;764;789;798;853;877;877;890;880;916;900;900;900;940;1018;1061;1061;1080;1136;1191;1224;1264;1264;1319;1403;1440;1408;1408;1325;1238;1200;1179;1179;1122;1047;962;886;886;792;721;658;603;603;557;515;479;451;418;411;360;352;327;310;310;291;280;280;299;299;328;355;391;437;453;505;562;619;652;628;628;573;520;518;529;529;507;500;505;520;520;543;566;582;584;584;597;627;630;606;606;606;606;606;635;640;640;641;640;680;703;703;720;807;823;845;845;837;840;884;904;904;892;844;840;843;843;880;884;920;986;1018;1018;1022;1000;1049;1098;1098;1116;1134;1164;1192;1192;1234;1263;1301;1347;1347;1386;1442;1476;1480;1480;1468;1440;1447;1429;1493;1493;1546;1546;1591;1638;1656;1706;1742;1760;1743;1743;1679;1628;1577;1578;1578;1609;1640;1571;1433;1326;1326;1280;1233;1239;1240;1240;1243;1243;1240;1253;1253;1274;1305;1338;1353;1353;1394;1430;1451;1440;1440;1429;1444;1462;1463;1459;1459;1491;1501;1548;1555;1555;1550;1532;1529;1561;1561;1569;1560;1551;1552;1552;1558;1549;1565;1582;1582;1588;1591;1592;1600;1609;1609;1618;1625;1628;1632;1632;1609;1615;1600;1592;1592;1588;1587;1594;1608;1608;1633;1675;1706;1726;1727;1712;1696;1693;1673;1627;1627;1660;1669;1684;1736;1736;1760;1698;1660;1615;1572;1533;1517;1527;1541;1541;1572;1532;1497;1456;1408;1408;1405;1402;1408;1364;1364;1308;1232;1148;1052;1052;1001;881;828;871;871;960;960;1027;1036;1088;1088;1155;1211;1283;1330;1330;1362;1416;1483;1563;1563;1637;1717;1760;1721;1721;1686;1652;1611;1567;1567;1523;1491;1464;1445;1452;1452;1406;1387;1331;1351;1351;1354;1286;1224;1157;1157;1104;1061;1014;995;995;1014;1112;1122;1163;1163;1222;1288;1357;1423;1474;1474;1500;1560;1631;1720;1720;1778;1831;1868;1880;1880;1880;1863;1811;1759;1759;1703;1708;1720;1683;1744;1744;1744;1692;1620;1564;1564;1497;1441;1382;1374;1374;1311;1362;1392;1423;1423;1439;1449;1444;1447;1447;1435;1399;1360;1355;1375;1375;1379;1348;1337;1330;1330;1298;1266;1253;1235;1235;1209;1167;1116;1068;1068;1007;945;870;843;843;843;885;877;914;979;979;1053;1122;1175;1223;1202;1241;1286;1323;1382;1382;1429;1477;1522;1555;1555;1563;1616;1676;1727;1766;1766;1835;1897;1897;1856;1856;1789;1687;1607;1528;1528;1454;1385;1327;1320;1320;1370;1435;1514;1590;1590;1699;1777;1841;1884;1939;1939;2033;2074;2131;2191;2191;2247;2296;2317;2321;2321;2344;2348;2269;2227;2227;2218;2283;2321;2303;2259;2259;2264;2321;2394;2402;2402;2419;2453;0;0;0;0;0;0;0;0;0;0;0;0;0;0;0;0;0;0;0;0;0;0;0;0;0;0;0;0;0;0;0;0;0;0;0;0;0;0;0;0;0;0;0;0;0;0;0;0;0;0;0;0;0;0;0;0;0;0;0;0;0;0;0;0;0;0;0;0;0;0;0;0;0;0;0;0;0;0;0;0;0;0;0;0;0;0;0;0;0;0;0;0;0;0;0;0;0;0;0;0;0;0;0;0
0;0;0;0;0;0;0;0;0;0;0;0;0;0;0;0;0;0;0;0;0;0;0;0;0;0;0;0;0;0;0;0;0;0;0;0;0;0;0;0;0;0;0;0;0;0;0;0;0;0;0;0;0;0;0;0;0;0;0;0;0;0;0;0;0;0;0;0;0;0;0;0;0;0;0;0;0;0;0;0;0;0;0;0;0;0;0;0;0;0;0;0;0;0;0;0;0;0;0;0;0;0;0;0;0;0;0;0;0;0;0;0;0;0;0;0;0;0;0;0;0;0;1360;1347;1347;1340;1340;1321;1284;1246;1246;1204;1163;1131;1095;1095;1051;1002;1061;1097;1097;1122;1119;1142;1189;1189;1216;1227;1224;1227;1231;1231;1243;1241;1251;1277;1277;1299;1320;1318;1303;1303;1329;1318;1289;1245;1245;1190;1139;1080;1032;1032;969;900;838;787;738;738;682;655;656;610;617;575;530;523;561;561;606;651;708;666;666;594;530;479;436;434;400;350;302;280;280;280;307;331;368;407;407;455;511;570;641;641;700;759;800;856;856;910;920;883;843;821;821;760;701;644;617;617;587;563;533;518;518;519;502;460;474;474;524;536;540;540;540;540;540;533;534;537;537;589;641;644;671;671;700;698;682;658;658;672;699;732;779;779;726;720;755;752;752;762;814;870;897;934;934;930;916;941;918;918;920;946;1035;1086;1086;1153;1172;1204;1228;1228;1269;1330;1413;1456;1456;1413;1323;1240;1240;1190;1168;1114;1043;963;888;888;793;707;648;595;595;551;519;477;439;439;403;366;344;319;299;299;283;280;282;315;315;339;369;424;471;471;518;572;624;616;616;591;519;464;480;480;480;480;513;540;524;524;580;605;633;636;636;636;668;680;666;666;641;650;680;683;683;688;713;687;712;754;754;720;805;843;880;880;920;906;894;931;931;937;886;853;840;840;866;906;950;973;973;968;980;1001;1038;1063;1063;1068;1100;1126;1166;1166;1213;1228;1281;1326;1304;1369;1422;1478;1480;1480;1463;1456;1470;1440;1440;1487;1557;1557;1616;1669;1669;1723;1752;1755;1723;1723;1672;1627;1600;1612;1612;1637;1640;1476;1326;1326;1246;1253;1215;1220;1240;1240;1230;1224;1219;1232;1232;1259;1278;1299;1333;1333;1366;1407;1433;1445;1445;1462;1485;1491;1498;1498;1494;1548;1582;1599;1595;1595;1586;1566;1561;1588;1588;1589;1558;1531;1527;1527;1520;1526;1538;1552;1552;1556;1562;1562;1568;1568;1579;1585;1589;1595;1568;1568;1577;1584;1585;1562;1562;1569;1563;1570;1589;1589;1615;1653;1690;1694;1694;1695;1679;1666;1650;1650;1606;1622;1630;1681;1729;1729;1760;1668;1573;1544;1544;1491;1472;1477;1495;1495;1516;1469;1480;1426;1426;1384;1360;1304;1324;1349;1349;1281;1216;1162;1068;1068;976;893;839;828;828;884;954;969;1034;1034;1119;1166;1236;1307;1307;1352;1394;1435;1486;1563;1573;1642;1728;1752;1704;1704;1667;1631;1594;1540;1540;1499;1466;1441;1412;1373;1354;1362;1330;1284;1284;1311;1326;1278;1218;1150;1150;1088;1024;972;962;962;965;1031;1082;1132;1132;1191;1266;1321;1388;1388;1432;1488;1559;1640;1719;1719;1785;1833;1863;1870;1870;1877;1838;1779;1724;1724;1662;1622;1616;1631;1631;1696;1724;1682;1623;1623;1569;1511;1450;1399;1357;1357;1280;1317;1362;1383;1383;1398;1407;1394;1404;1404;1388;1378;1347;1338;1338;1327;1305;1295;1292;1292;1292;1258;1225;1207;1195;1195;1183;1135;1089;1048;1030;994;923;848;843;843;892;938;950;989;989;1035;1046;1113;1150;1168;1168;1214;1247;1299;1354;1354;1399;1447;1479;1511;1511;1550;1602;1653;1717;1717;1778;1836;1903;1920;1920;1905;1830;1724;1647;1592;1592;1462;1397;1344;1320;1320;1378;1447;1517;1616;1616;1691;1736;1796;1875;1875;1961;2016;2088;2146;2200;2200;2256;2309;2362;2368;2368;2366;2362;2289;2245;2265;2252;2298;2336;2329;2329;2277;2282;2360;2383;2402;2402;2443;2463;0;0;0;0;0;0;0;0;0;0;0;0;0;0;0;0;0;0;0;0;0;0;0;0;0;0;0;0;0;0;0;0;0;0;0;0;0;0;0;0;0;0;0;0;0;0;0;0;0;0;0;0;0;0;0;0;0;0;0;0;0;0;0;0;0;0;0;0;0;0;0;0;0;0;0;0;0;0;0;0;0;0;0;0;0;0;0;0;0;0;0;0;0;0;0;0;0;0;0;0;0;0;0;0
0;0;0;0;0;0;0;0;0;0;0;0;0;0;0;0;0;0;0;0;0;0;0;0;0;0;0;0;0;0;0;0;0;0;0;0;0;0;0;0;0;0;0;0;0;0;0;0;0;0;0;0;0;0;0;0;0;0;0;0;0;0;0;0;0;0;0;0;0;0;0;0;0;0;0;0;0;0;0;0;0;0;0;0;0;0;0;0;0;0;0;0;0;0;0;0;0;0;0;0;0;0;0;0;0;0;0;0;0;0;0;0;0;0;0;0;0;0;0;0;0;0;1351;1341;1341;1339;1337;1309;1276;1276;1241;1200;1168;1139;1106;1106;1059;1000;1044;1069;1069;1086;1086;1136;1177;1177;1200;1208;1200;1203;1203;1191;1209;1226;1243;1270;1270;1294;1318;1319;1300;1300;1320;1309;1281;1246;1240;1201;1152;1092;1038;1038;976;899;836;790;790;744;714;687;663;607;607;574;532;510;534;534;591;643;685;675;675;610;544;483;431;431;398;355;302;280;280;280;292;324;369;415;415;463;521;587;652;652;713;775;833;876;876;920;909;863;840;840;828;759;686;645;645;621;599;566;550;520;520;505;488;460;480;480;515;525;525;531;531;531;540;556;556;556;552;598;650;678;680;655;661;686;692;676;676;687;714;760;812;812;767;731;787;775;803;806;825;879;942;942;960;955;959;960;924;924;936;960;1029;1086;1086;1132;1176;1200;1233;1233;1276;1337;1412;1471;1471;1405;1324;1280;1239;1239;1149;1074;1000;975;863;863;781;696;640;593;593;561;523;476;438;438;400;391;340;316;316;290;280;280;303;333;333;357;403;440;489;489;538;592;600;568;568;537;458;444;480;480;517;531;534;574;574;560;602;631;673;688;688;665;686;724;704;747;718;686;700;730;730;742;760;737;732;732;810;782;770;818;807;865;933;952;933;943;943;960;934;873;840;840;866;889;919;919;919;942;955;982;1006;1006;1018;1037;1060;1102;1102;1140;1160;1201;1240;1311;1311;1372;1419;1482;1504;1504;1479;1486;1488;1447;1447;1499;1559;1572;1626;1626;1682;1733;1760;1747;1704;1704;1662;1635;1621;1639;1639;1667;1581;1423;1278;1278;1222;1208;1197;1189;1189;1221;1213;1204;1200;1214;1193;1219;1254;1281;1313;1313;1345;1377;1406;1461;1461;1499;1520;1530;1537;1575;1577;1586;1611;1633;1633;1635;1623;1610;1600;1621;1621;1608;1568;1533;1493;1493;1500;1506;1502;1517;1517;1527;1531;1528;1534;1534;1547;1552;1555;1531;1531;1537;1544;1551;1560;1552;1552;1545;1544;1552;1576;1576;1597;1613;1637;1675;1675;1675;1652;1626;1610;1610;1589;1592;1625;1679;1679;1721;1716;1622;1556;1495;1495;1454;1437;1427;1440;1440;1463;1416;1453;1446;1446;1373;1286;1256;1229;1229;1292;1251;1197;1128;1036;1036;974;905;846;773;784;860;894;1006;1057;1057;1150;1199;1252;1322;1322;1368;1415;1463;1527;1556;1618;1660;1720;1716;1686;1686;1649;1607;1560;1516;1516;1476;1446;1369;1329;1329;1301;1310;1278;1253;1253;1270;1296;1274;1222;1222;1155;1092;1037;965;939;939;926;990;1057;1108;1108;1173;1229;1302;1362;1362;1421;1498;1565;1638;1638;1723;1780;1828;1855;1846;1846;1843;1809;1755;1696;1696;1596;1573;1567;1601;1601;1680;1686;1680;1630;1630;1574;1519;1454;1397;1390;1338;1269;1277;1326;1343;1343;1354;1358;1334;1347;1347;1350;1349;1336;1283;1283;1313;1240;1226;1229;1229;1248;1220;1176;1172;1161;1161;1141;1104;1044;1011;1011;975;914;841;840;840;921;983;1013;1060;1060;1053;1051;1085;1120;1120;1158;1179;1232;1276;1322;1322;1372;1417;1447;1485;1485;1558;1619;1676;1737;1737;1794;1849;1914;1960;1960;1918;1828;1759;1662;1662;1591;1499;1408;1354;1320;1320;1377;1428;1510;1588;1588;1671;1759;1840;1897;1890;1944;2029;2102;2163;2163;2218;2272;2325;2384;2401;2401;2389;2373;2333;2297;2297;2287;2320;2340;2350;2350;2345;2341;2360;2368;2368;2425;2468;0;0;0;0;0;0;0;0;0;0;0;0;0;0;0;0;0;0;0;0;0;0;0;0;0;0;0;0;0;0;0;0;0;0;0;0;0;0;0;0;0;0;0;0;0;0;0;0;0;0;0;0;0;0;0;0;0;0;0;0;0;0;0;0;0;0;0;0;0;0;0;0;0;0;0;0;0;0;0;0;0;0;0;0;0;0;0;0;0;0;0;0;0;0;0;0;0;0;0;0;0;0;0;0;0
0;0;0;0;0;0;0;0;0;0;0;0;0;0;0;0;0;0;0;0;0;0;0;0;0;0;0;0;0;0;0;0;0;0;0;0;0;0;0;0;0;0;0;0;0;0;0;0;0;0;0;0;0;0;0;0;0;0;0;0;0;0;0;0;0;0;0;0;0;0;0;0;0;0;0;0;0;0;0;0;0;0;0;0;0;0;0;0;0;0;0;0;0;0;0;0;0;0;0;0;0;0;0;0;0;0;0;0;0;0;0;0;0;0;0;0;0;0;0;0;0;0;1345;1340;1340;1329;1322;1289;1257;1257;1226;1191;1158;1130;1118;1089;1049;1000;1026;1040;1040;1066;1100;1142;1169;1169;1190;1189;1182;1169;1169;1183;1195;1211;1244;1244;1267;1284;1306;1316;1307;1307;1300;1296;1265;1234;1234;1194;1146;1096;1045;1045;980;899;835;793;793;757;720;674;642;642;598;564;528;482;482;535;584;636;680;676;676;612;541;482;433;433;393;352;304;280;280;280;285;320;370;370;418;460;520;574;641;641;699;757;819;885;885;920;886;840;826;826;812;754;700;654;654;622;594;565;546;546;520;493;480;457;472;468;492;496;498;520;520;522;533;542;560;560;586;614;650;635;635;640;656;695;716;690;690;703;730;778;851;851;802;766;831;839;839;837;857;874;940;940;960;980;1000;960;960;954;959;1003;1044;1097;1097;1135;1176;1200;1231;1231;1278;1336;1416;1467;1467;1397;1326;1294;1223;1223;1137;1044;978;910;910;838;752;685;638;595;595;568;525;487;440;440;426;373;315;291;291;280;280;305;330;330;374;397;420;460;506;506;560;570;548;514;514;448;440;471;498;515;533;562;566;604;604;607;623;671;694;694;743;727;720;761;790;790;771;720;725;779;779;790;840;806;794;794;839;828;846;845;845;854;914;960;960;960;960;960;951;887;852;852;876;880;892;913;913;923;941;960;977;977;1000;1018;1040;1082;1082;1105;1160;1215;1266;1266;1326;1380;1446;1496;1513;1513;1489;1510;1510;1461;1461;1522;1582;1582;1635;1635;1690;1747;1760;1739;1739;1693;1660;1653;1653;1669;1694;1636;1526;1383;1250;1250;1200;1160;1160;1158;1158;1195;1187;1176;1160;1160;1173;1195;1234;1259;1259;1292;1320;1347;1391;1459;1459;1528;1559;1600;1614;1614;1618;1626;1645;1666;1666;1674;1666;1656;1651;1651;1658;1625;1573;1537;1537;1491;1468;1478;1480;1486;1486;1491;1495;1496;1503;1503;1512;1478;1481;1493;1493;1503;1511;1519;1530;1530;1537;1520;1525;1541;1561;1561;1557;1582;1607;1629;1629;1636;1620;1583;1569;1569;1560;1574;1618;1665;1650;1689;1720;1599;1527;1527;1482;1421;1390;1401;1377;1377;1398;1365;1400;1380;1380;1366;1269;1200;1178;1178;1209;1207;1174;1071;1071;964;933;885;792;775;775;854;920;1006;1084;1084;1136;1193;1270;1320;1320;1372;1428;1509;1578;1578;1646;1700;1716;1693;1693;1668;1636;1589;1547;1500;1500;1454;1381;1335;1292;1292;1251;1253;1242;1216;1216;1233;1263;1239;1222;1222;1160;1101;1054;998;998;945;900;962;1033;1098;1098;1182;1278;1329;1386;1414;1464;1519;1577;1649;1649;1729;1785;1834;1844;1844;1813;1788;1769;1721;1622;1622;1577;1526;1529;1584;1584;1633;1641;1658;1636;1636;1582;1521;1456;1389;1389;1336;1266;1230;1282;1282;1303;1309;1315;1279;1304;1304;1309;1275;1289;1269;1269;1271;1204;1170;1186;1186;1193;1169;1144;1134;1134;1125;1080;1052;1016;1016;982;943;895;838;850;850;902;983;1060;1098;1098;1132;1127;1128;1160;1160;1200;1200;1241;1285;1285;1316;1360;1395;1456;1509;1522;1580;1639;1698;1751;1751;1812;1869;1932;1984;1984;1907;1854;1785;1669;1669;1560;1480;1419;1357;1357;1329;1380;1451;1555;1640;1640;1687;1734;1805;1880;1880;1970;2040;2110;2175;2175;2237;2287;2334;2385;2385;2425;2424;2419;2349;2318;2318;2333;2332;2340;2396;2396;2385;2357;2360;2379;2379;2441;0;0;0;0;0;0;0;0;0;0;0;0;0;0;0;0;0;0;0;0;0;0;0;0;0;0;0;0;0;0;0;0;0;0;0;0;0;0;0;0;0;0;0;0;0;0;0;0;0;0;0;0;0;0;0;0;0;0;0;0;0;0;0;0;0;0;0;0;0;0;0;0;0;0;0;0;0;0;0;0;0;0;0;0;0;0;0;0;0;0;0;0;0;0;0;0;0;0;0;0;0;0;0;0;0;0
0;0;0;0;0;0;0;0;0;0;0;0;0;0;0;0;0;0;0;0;0;0;0;0;0;0;0;0;0;0;0;0;0;0;0;0;0;0;0;0;0;0;0;0;0;0;0;0;0;0;0;0;0;0;0;0;0;0;0;0;0;0;0;0;0;0;0;0;0;0;0;0;0;0;0;0;0;0;0;0;0;0;0;0;0;0;0;0;0;0;0;0;0;0;0;0;0;0;0;0;0;0;0;0;0;0;0;0;0;0;0;0;0;0;0;0;0;0;0;0;0;0;1340;1340;1340;1330;1302;1271;1235;1235;1204;1177;1146;1100;1100;1065;1026;1000;1020;1020;1048;1097;1126;1151;1170;1170;1180;1170;1160;1160;1160;1173;1183;1201;1237;1237;1262;1274;1285;1309;1309;1309;1286;1275;1251;1251;1224;1187;1146;1093;1045;1045;978;899;833;789;789;739;697;649;621;621;588;553;514;480;480;530;571;624;680;680;657;593;530;474;434;434;398;364;310;280;280;280;280;318;360;361;417;478;532;584;584;642;709;768;830;891;891;920;863;818;790;790;798;738;689;652;652;623;588;558;526;526;520;484;472;468;468;468;480;480;520;547;547;560;571;540;563;563;587;605;600;601;601;637;670;707;712;712;707;724;748;788;788;896;830;826;859;880;880;869;893;911;926;926;962;999;1005;960;960;1000;988;1000;1040;1040;1091;1124;1160;1197;1197;1235;1285;1343;1437;1460;1450;1371;1312;1273;1193;1193;1126;1037;966;880;880;814;735;677;640;640;597;560;528;488;475;475;414;345;292;280;280;280;300;320;320;320;388;411;433;479;479;527;560;500;489;489;459;440;440;504;535;535;549;570;600;629;629;637;636;707;733;733;779;774;791;778;778;829;804;754;760;818;818;840;869;868;855;855;880;881;886;879;879;851;884;936;960;960;960;965;960;907;907;880;890;903;913;923;923;920;934;960;976;976;998;1024;1048;1080;1115;1118;1145;1195;1268;1268;1328;1384;1443;1506;1506;1521;1521;1545;1536;1503;1503;1539;1585;1585;1642;1642;1699;1755;1770;1731;1731;1687;1680;1686;1720;1720;1720;1640;1486;1369;1233;1233;1169;1127;1112;1142;1142;1172;1166;1146;1144;1144;1150;1176;1208;1240;1240;1273;1295;1335;1400;1400;1463;1530;1571;1600;1621;1621;1640;1660;1676;1695;1695;1715;1712;1701;1697;1697;1640;1560;1510;1490;1490;1484;1448;1441;1455;1455;1450;1455;1459;1457;1466;1428;1440;1436;1444;1453;1453;1470;1483;1488;1500;1500;1513;1517;1519;1520;1504;1509;1523;1549;1573;1573;1591;1596;1583;1543;1511;1511;1531;1579;1611;1639;1639;1671;1686;1589;1527;1527;1440;1388;1352;1352;1352;1358;1354;1287;1330;1270;1270;1218;1224;1190;1141;1141;1151;1150;1134;1013;1013;941;849;817;760;760;799;865;924;1051;1120;1120;1169;1200;1262;1316;1316;1387;1455;1526;1594;1594;1671;1682;1694;1673;1673;1650;1622;1583;1539;1539;1469;1415;1364;1306;1262;1262;1222;1218;1210;1168;1168;1206;1224;1208;1192;1153;1130;1076;1018;967;967;907;904;973;1036;1036;1125;1231;1315;1377;1442;1442;1498;1557;1607;1666;1666;1741;1788;1823;1811;1811;1779;1739;1699;1658;1658;1596;1544;1499;1484;1484;1545;1583;1593;1625;1595;1595;1562;1495;1447;1386;1386;1335;1263;1200;1214;1214;1251;1260;1270;1241;1241;1259;1198;1217;1240;1245;1245;1221;1162;1120;1119;1119;1145;1133;1120;1099;1059;1067;1053;1023;983;983;946;906;853;823;823;886;938;981;1059;1143;1143;1172;1181;1190;1197;1197;1233;1233;1223;1300;1300;1359;1392;1424;1493;1493;1530;1584;1662;1713;1713;1758;1816;1876;1947;1985;1985;1926;1818;1751;1671;1671;1623;1556;1417;1363;1363;1346;1388;1453;1548;1548;1579;1705;1764;1848;1915;1915;1995;2069;2130;2185;2185;2230;2283;2326;2373;2373;2423;2472;2437;2367;2367;2340;2340;2337;2354;2400;2400;2384;2359;2359;2394;2422;2417;0;0;0;0;0;0;0;0;0;0;0;0;0;0;0;0;0;0;0;0;0;0;0;0;0;0;0;0;0;0;0;0;0;0;0;0;0;0;0;0;0;0;0;0;0;0;0;0;0;0;0;0;0;0;0;0;0;0;0;0;0;0;0;0;0;0;0;0;0;0;0;0;0;0;0;0;0;0;0;0;0;0;0;0;0;0;0;0;0;0;0;0;0;0;0;0;0;0;0;0;0;0;0;0;0;0
0;0;0;0;0;0;0;0;0;0;0;0;0;0;0;0;0;0;0;0;0;0;0;0;0;0;0;0;0;0;0;0;0;0;0;0;0;0;0;0;0;0;0;0;0;0;0;0;0;0;0;0;0;0;0;0;0;0;0;0;0;0;0;0;0;0;0;0;0;0;0;0;0;0;0;0;0;0;0;0;0;0;0;0;0;0;0;0;0;0;0;0;0;0;0;0;0;0;0;0;0;0;0;0;0;0;0;0;0;0;0;0;0;0;0;0;0;0;0;0;0;0;1340;1340;1333;1324;1293;1250;1215;1215;1182;1133;1106;1084;1084;1042;1000;1005;1042;1042;1079;1122;1140;1150;1150;1165;1169;1170;1159;1155;1155;1165;1169;1192;1230;1230;1258;1265;1274;1296;1296;1297;1274;1257;1243;1243;1212;1179;1138;1088;1088;1041;970;897;828;782;774;731;683;630;579;579;568;539;499;480;480;532;579;633;680;680;649;587;523;472;472;431;409;370;314;280;280;280;280;306;360;360;417;481;549;606;606;662;725;788;843;843;897;893;818;777;777;778;795;727;667;631;631;607;579;560;529;529;517;496;461;480;480;496;497;515;546;546;580;580;580;575;560;560;588;600;600;640;640;640;672;687;688;688;707;733;760;800;800;855;840;840;854;854;874;880;904;934;960;960;979;1013;1040;983;1000;1010;1019;1043;1061;1061;1084;1132;1177;1205;1205;1246;1294;1358;1446;1466;1444;1366;1336;1265;1180;1180;1098;1028;958;876;876;794;709;696;651;651;606;564;521;503;503;445;381;311;280;280;280;293;307;320;320;320;384;421;446;497;497;543;516;445;440;440;440;517;521;520;520;553;581;580;632;652;652;685;649;707;772;772;839;866;827;821;821;839;826;786;789;789;846;899;922;914;914;940;948;924;922;913;913;905;889;920;952;952;982;990;980;937;946;880;891;920;924;924;938;939;960;960;980;980;1013;1055;1117;1153;1153;1179;1201;1209;1264;1264;1322;1389;1454;1527;1527;1553;1563;1592;1555;1555;1520;1569;1607;1607;1647;1647;1703;1757;1766;1726;1726;1691;1680;1706;1711;1711;1727;1642;1483;1351;1351;1238;1176;1102;1080;1127;1127;1119;1120;1127;1120;1120;1123;1157;1182;1213;1213;1245;1279;1329;1400;1400;1453;1510;1551;1583;1583;1612;1648;1680;1691;1720;1720;1748;1751;1746;1713;1720;1575;1495;1462;1436;1436;1446;1442;1400;1424;1424;1421;1421;1422;1377;1377;1379;1402;1392;1405;1412;1412;1435;1453;1455;1468;1468;1488;1493;1464;1484;1484;1482;1500;1517;1538;1538;1555;1564;1546;1509;1509;1480;1548;1587;1616;1625;1625;1652;1680;1624;1507;1507;1417;1348;1321;1308;1308;1315;1220;1209;1225;1225;1190;1149;1178;1162;1120;1120;1086;1077;1089;991;981;906;834;770;760;760;821;883;966;1031;1031;1103;1180;1240;1284;1291;1346;1398;1467;1548;1622;1622;1680;1680;1677;1657;1657;1634;1608;1572;1510;1510;1450;1396;1349;1296;1296;1246;1186;1167;1179;1179;1130;1164;1180;1130;1111;1111;1086;1044;982;927;927;880;921;988;1057;1057;1136;1257;1323;1369;1369;1427;1513;1554;1617;1680;1680;1745;1749;1796;1783;1783;1709;1673;1645;1627;1627;1572;1516;1474;1464;1464;1523;1531;1564;1590;1590;1508;1475;1457;1436;1378;1378;1330;1268;1193;1163;1163;1195;1213;1225;1209;1174;1162;1193;1224;1240;1240;1221;1206;1141;1076;1067;1067;1088;1091;1013;1021;1021;1024;1017;983;942;942;909;874;823;849;849;890;965;1051;1121;1121;1173;1204;1225;1241;1246;1246;1268;1274;1246;1297;1297;1360;1420;1478;1520;1520;1564;1602;1649;1708;1708;1768;1841;1899;1961;1961;1977;1922;1855;1800;1760;1760;1707;1580;1434;1396;1396;1360;1388;1435;1524;1533;1614;1673;1792;1840;1840;1935;2011;2082;2124;2150;2150;2187;2246;2280;2322;2322;2395;2464;2458;2395;2395;2353;2340;2353;2378;2378;2399;2407;2402;2419;2419;0;0;0;0;0;0;0;0;0;0;0;0;0;0;0;0;0;0;0;0;0;0;0;0;0;0;0;0;0;0;0;0;0;0;0;0;0;0;0;0;0;0;0;0;0;0;0;0;0;0;0;0;0;0;0;0;0;0;0;0;0;0;0;0;0;0;0;0;0;0;0;0;0;0;0;0;0;0;0;0;0;0;0;0;0;0;0;0;0;0;0;0;0;0;0;0;0;0;0;0;0;0;0;0;0;0;0;0
0;0;0;0;0;0;0;0;0;0;0;0;0;0;0;0;0;0;0;0;0;0;0;0;0;0;0;0;0;0;0;0;0;0;0;0;0;0;0;0;0;0;0;0;0;0;0;0;0;0;0;0;0;0;0;0;0;0;0;0;0;0;0;0;0;0;0;0;0;0;0;0;0;0;0;0;0;0;0;0;0;0;0;0;0;0;0;0;0;0;0;0;0;0;0;0;0;0;0;0;0;0;0;0;0;0;0;0;0;0;0;0;0;0;0;0;0;0;0;0;0;1356;1340;1340;1324;1320;1287;1244;1244;1194;1150;1109;1080;1060;1060;1022;1000;1024;1058;1058;1089;1123;1139;1140;1129;1148;1164;1165;1156;1156;1147;1160;1160;1179;1223;1223;1253;1256;1265;1267;1267;1280;1260;1240;1225;1225;1202;1168;1130;1079;1079;1034;978;909;825;825;773;728;676;630;567;567;538;524;485;480;480;527;576;613;678;678;644;583;531;476;476;433;412;374;316;316;280;280;280;312;370;370;431;488;544;610;610;679;737;794;844;844;869;844;795;758;758;767;796;718;661;661;640;613;582;569;545;546;520;480;476;486;486;517;520;533;563;563;580;580;585;581;585;598;600;600;600;609;609;635;640;648;669;669;698;720;750;747;747;809;812;812;826;826;844;878;897;928;928;963;995;1030;1040;1011;1011;1029;1057;1086;1097;1097;1109;1136;1190;1229;1229;1273;1316;1411;1480;1480;1439;1377;1360;1279;1279;1183;1100;1021;931;863;863;785;749;692;643;643;604;564;547;519;519;405;346;291;280;280;280;300;321;340;320;320;373;417;451;491;491;522;478;400;451;472;517;520;533;539;539;570;606;600;660;660;689;735;722;710;815;815;866;907;878;874;874;870;848;825;833;833;871;947;970;993;993;980;973;958;954;954;949;947;926;942;960;960;992;1009;1006;957;957;906;887;935;949;949;957;963;968;960;960;985;1035;1056;1117;1117;1181;1238;1243;1269;1300;1300;1338;1402;1473;1528;1528;1577;1630;1593;1560;1560;1558;1580;1629;1629;1629;1667;1705;1744;1731;1720;1679;1663;1658;1678;1674;1674;1686;1570;1439;1332;1332;1185;1140;1085;1082;1053;1080;1096;1107;1113;1100;1100;1104;1135;1155;1189;1189;1223;1279;1348;1401;1401;1446;1495;1531;1567;1567;1603;1640;1679;1692;1692;1724;1755;1777;1738;1659;1659;1591;1499;1410;1410;1410;1416;1430;1408;1388;1388;1393;1392;1359;1335;1335;1338;1364;1359;1366;1366;1375;1390;1420;1422;1433;1433;1426;1442;1443;1463;1463;1459;1478;1492;1505;1505;1519;1525;1504;1470;1470;1459;1526;1565;1590;1590;1602;1629;1635;1588;1514;1514;1410;1330;1278;1280;1216;1206;1160;1169;1153;1153;1124;1112;1127;1102;1102;1090;1057;1017;1028;957;957;874;800;760;783;783;864;902;938;1046;1046;1099;1165;1230;1299;1299;1362;1422;1480;1568;1568;1628;1672;1675;1661;1641;1641;1616;1566;1528;1480;1480;1429;1380;1325;1281;1281;1236;1187;1124;1131;1131;1102;1095;1100;1086;1086;1072;1051;1000;948;899;899;846;932;1010;1109;1109;1201;1271;1294;1330;1330;1412;1480;1509;1600;1600;1629;1717;1698;1732;1749;1749;1687;1625;1597;1600;1600;1553;1498;1432;1434;1434;1481;1494;1525;1511;1511;1472;1430;1414;1402;1402;1369;1324;1263;1200;1140;1140;1142;1165;1137;1120;1120;1161;1186;1206;1202;1202;1173;1165;1117;1052;1052;1033;1032;975;988;982;982;975;965;935;904;904;874;824;823;852;852;945;1007;1072;1147;1147;1201;1236;1265;1288;1288;1311;1323;1316;1284;1293;1350;1338;1412;1468;1518;1518;1580;1634;1670;1717;1717;1778;1847;1913;1974;1967;1980;1890;1823;1766;1766;1710;1647;1567;1470;1418;1418;1372;1385;1446;1516;1516;1606;1707;1765;1830;1830;1912;1990;2064;2115;2115;2107;2150;2143;2228;2276;2276;2380;2441;2472;2409;2409;2375;2366;2369;2377;2377;2412;0;0;0;0;0;0;0;0;0;0;0;0;0;0;0;0;0;0;0;0;0;0;0;0;0;0;0;0;0;0;0;0;0;0;0;0;0;0;0;0;0;0;0;0;0;0;0;0;0;0;0;0;0;0;0;0;0;0;0;0;0;0;0;0;0;0;0;0;0;0;0;0;0;0;0;0;0;0;0;0;0;0;0;0;0;0;0;0;0;0;0;0;0;0;0;0;0;0;0;0;0;0;0;0;0;0;0;0;0;0;0;0
0;0;0;0;0;0;0;0;0;0;0;0;0;0;0;0;0;0;0;0;0;0;0;0;0;0;0;0;0;0;0;0;0;0;0;0;0;0;0;0;0;0;0;0;0;0;0;0;0;0;0;0;0;0;0;0;0;0;0;0;0;0;0;0;0;0;0;0;0;0;0;0;0;0;0;0;0;0;0;0;0;0;0;0;0;0;0;0;0;0;0;0;0;0;0;0;0;0;0;0;0;0;0;0;0;0;0;0;0;0;0;0;0;0;0;0;0;0;0;0;0;1360;1343;1343;1323;1310;1281;1229;1229;1191;1152;1116;1080;1080;1040;1000;973;1019;1056;1056;1083;1108;1106;1123;1123;1140;1158;1160;1160;1160;1144;1144;1153;1174;1174;1215;1240;1240;1249;1249;1261;1266;1243;1227;1206;1206;1190;1159;1122;1072;1072;1030;972;927;829;829;774;727;672;618;618;566;538;501;475;475;462;494;536;588;658;658;640;578;521;475;475;433;412;369;320;320;280;280;280;320;320;379;441;505;556;614;614;675;718;769;819;802;840;821;771;724;724;753;795;718;678;678;670;623;592;572;573;553;520;504;480;484;484;514;520;543;570;570;565;580;600;600;600;600;600;600;607;607;625;635;640;640;640;640;680;690;718;720;720;772;800;800;811;811;840;865;880;920;920;953;987;1029;1040;1040;1040;1056;1094;1129;1138;1138;1145;1161;1218;1268;1268;1344;1391;1457;1480;1480;1433;1400;1371;1300;1300;1195;1107;1024;969;969;912;815;739;681;634;634;600;572;560;493;493;397;327;280;280;282;292;313;330;348;348;340;342;389;426;426;464;503;460;417;466;466;503;520;538;560;560;587;626;632;676;676;739;763;830;805;805;810;877;939;937;911;911;905;885;855;878;878;898;980;1022;1021;1021;1009;1002;1001;992;992;991;988;962;976;976;982;1000;1030;1018;973;973;935;912;930;975;975;995;987;999;977;977;1000;1035;1053;1113;1113;1183;1238;1280;1310;1310;1320;1375;1421;1486;1558;1632;1680;1663;1600;1587;1587;1585;1602;1638;1638;1638;1685;1720;1708;1680;1636;1640;1634;1639;1639;1652;1652;1631;1564;1391;1302;1302;1174;1091;1042;1036;1036;1059;1078;1086;1085;1085;1080;1080;1112;1135;1135;1173;1221;1294;1361;1405;1405;1440;1483;1514;1553;1553;1591;1630;1661;1687;1687;1718;1732;1756;1759;1759;1610;1545;1475;1400;1400;1393;1389;1392;1393;1360;1360;1341;1336;1319;1318;1318;1298;1326;1320;1325;1325;1338;1356;1384;1389;1389;1367;1393;1408;1432;1441;1441;1439;1459;1466;1473;1473;1486;1486;1462;1400;1400;1459;1505;1540;1545;1545;1570;1600;1620;1560;1560;1480;1414;1311;1253;1179;1179;1172;1120;1082;1120;1120;1030;1056;1050;1051;1051;1036;1017;927;898;898;919;858;789;741;811;811;888;961;1006;1042;1042;1095;1183;1239;1308;1308;1387;1456;1511;1581;1581;1628;1650;1653;1642;1642;1598;1569;1537;1502;1458;1458;1409;1360;1316;1261;1261;1216;1182;1146;1080;1091;1040;1053;1063;1040;1040;1034;1020;992;925;925;869;868;949;1044;1157;1157;1214;1245;1243;1294;1294;1399;1422;1488;1566;1566;1570;1613;1644;1737;1737;1726;1666;1600;1556;1556;1560;1537;1477;1414;1396;1396;1436;1422;1470;1506;1506;1451;1392;1369;1355;1355;1337;1297;1248;1204;1204;1136;1110;1106;1080;1113;1113;1129;1117;1134;1143;1143;1129;1115;1101;1039;1039;961;931;913;948;948;938;928;910;894;894;869;828;823;823;855;891;958;1030;1085;1158;1158;1222;1267;1303;1324;1324;1356;1372;1359;1383;1383;1397;1369;1401;1450;1450;1507;1574;1633;1691;1726;1726;1780;1844;1911;1984;1984;1996;1922;1849;1772;1772;1672;1608;1551;1488;1488;1437;1398;1400;1441;1507;1507;1602;1662;1725;1793;1793;1896;1982;2009;2080;2080;2025;2039;2145;2196;2196;2250;2358;2403;2432;2434;2434;2398;2380;2395;2400;2402;2403;0;0;0;0;0;0;0;0;0;0;0;0;0;0;0;0;0;0;0;0;0;0;0;0;0;0;0;0;0;0;0;0;0;0;0;0;0;0;0;0;0;0;0;0;0;0;0;0;0;0;0;0;0;0;0;0;0;0;0;0;0;0;0;0;0;0;0;0;0;0;0;0;0;0;0;0;0;0;0;0;0;0;0;0;0;0;0;0;0;0;0;0;0;0;0;0;0;0;0;0;0;0;0;0;0;0;0;0;0;0;0;0
0;0;0;0;0;0;0;0;0;0;0;0;0;0;0;0;0;0;0;0;0;0;0;0;0;0;0;0;0;0;0;0;0;0;0;0;0;0;0;0;0;0;0;0;0;0;0;0;0;0;0;0;0;0;0;0;0;0;0;0;0;0;0;0;0;0;0;0;0;0;0;0;0;0;0;0;0;0;0;0;0;0;0;0;0;0;0;0;0;0;0;0;0;0;0;0;0;0;0;0;0;0;0;0;0;0;0;0;0;0;0;0;0;0;0;0;0;0;0;0;0;1366;1343;1343;1325;1302;1264;1225;1225;1187;1153;1121;1088;1088;1057;1024;966;1004;1004;1040;1064;1058;1089;1120;1120;1125;1146;1160;1160;1160;1144;1140;1156;1171;1171;1188;1226;1232;1239;1239;1249;1260;1239;1216;1216;1200;1182;1158;1116;1067;1064;1016;965;924;835;835;772;723;668;621;621;600;548;488;465;459;440;440;498;561;561;635;636;578;525;472;472;431;408;357;302;302;280;280;280;328;328;388;440;486;538;538;594;648;698;744;790;790;829;793;745;716;716;740;768;718;676;676;656;622;589;571;571;556;520;512;480;480;480;491;524;545;556;556;562;593;600;600;600;600;601;620;629;629;646;651;655;671;671;674;709;725;743;743;777;760;791;828;847;847;845;874;900;943;981;968;989;1024;1059;1059;1066;1078;1131;1176;1176;1183;1179;1199;1238;1282;1332;1375;1430;1480;1473;1473;1412;1392;1370;1294;1294;1200;1161;1063;992;992;920;810;729;671;671;627;600;578;555;472;472;385;313;280;280;280;300;317;333;350;350;374;360;360;399;399;441;479;403;408;408;473;488;520;545;571;571;609;640;677;685;685;758;839;880;855;855;840;880;948;984;984;955;949;917;891;921;921;1004;999;1043;1051;1051;1049;1039;1031;1028;1028;1025;1023;1008;1000;1021;1040;1040;1047;1041;1041;998;955;920;952;978;978;1040;1021;1032;1049;1049;1040;1047;1096;1120;1120;1173;1234;1297;1359;1359;1382;1397;1469;1584;1584;1640;1695;1684;1640;1631;1631;1608;1632;1660;1660;1660;1685;1702;1612;1588;1588;1598;1597;1610;1605;1605;1627;1600;1511;1410;1210;1210;1160;1087;1055;1000;1000;1040;1058;1080;1062;1062;1056;1057;1087;1121;1121;1171;1245;1309;1356;1356;1396;1428;1465;1499;1540;1540;1577;1612;1639;1672;1659;1690;1716;1741;1702;1702;1585;1496;1440;1360;1360;1365;1360;1361;1365;1331;1332;1320;1300;1280;1279;1279;1269;1285;1280;1283;1283;1294;1328;1346;1322;1322;1339;1369;1392;1424;1424;1436;1428;1440;1445;1445;1437;1447;1437;1368;1393;1393;1446;1486;1504;1502;1502;1534;1571;1599;1584;1584;1502;1407;1332;1266;1266;1200;1141;1105;1040;1067;1067;985;996;1000;1005;1005;948;941;898;854;854;884;824;764;738;738;850;913;962;1011;1011;1075;1139;1208;1262;1319;1319;1395;1483;1537;1587;1587;1631;1636;1628;1617;1590;1573;1542;1510;1473;1473;1431;1391;1346;1301;1301;1255;1208;1148;1100;1064;1064;1017;1000;1035;1009;1009;1001;984;960;906;906;844;875;966;1080;1080;1131;1167;1184;1205;1237;1237;1362;1391;1440;1504;1504;1501;1508;1630;1722;1722;1684;1631;1574;1507;1507;1513;1520;1453;1394;1394;1360;1357;1393;1450;1477;1477;1424;1373;1324;1318;1318;1289;1259;1221;1175;1133;1082;1076;1080;1062;1062;1069;1063;1055;1060;1077;1077;1092;1063;1072;994;994;966;890;868;893;893;892;883;868;844;844;823;823;824;921;921;951;942;1023;1085;1162;1162;1237;1295;1335;1360;1360;1404;1459;1456;1429;1429;1444;1426;1417;1436;1436;1492;1562;1613;1674;1674;1733;1771;1839;1915;2006;2006;2002;1960;1879;1837;1837;1760;1708;1604;1510;1510;1484;1439;1400;1427;1427;1500;1558;1631;1704;1804;1804;1889;1927;2008;2048;1998;1978;2030;2110;2161;2161;2222;2338;2355;2386;2386;2440;2435;2426;2413;2404;0;0;0;0;0;0;0;0;0;0;0;0;0;0;0;0;0;0;0;0;0;0;0;0;0;0;0;0;0;0;0;0;0;0;0;0;0;0;0;0;0;0;0;0;0;0;0;0;0;0;0;0;0;0;0;0;0;0;0;0;0;0;0;0;0;0;0;0;0;0;0;0;0;0;0;0;0;0;0;0;0;0;0;0;0;0;0;0;0;0;0;0;0;0;0;0;0;0;0;0;0;0;0;0;0;0;0;0;0;0;0;0;0;0
0;0;0;0;0;0;0;0;0;0;0;0;0;0;0;0;0;0;0;0;0;0;0;0;0;0;0;0;0;0;0;0;0;0;0;0;0;0;0;0;0;0;0;0;0;0;0;0;0;0;0;0;0;0;0;0;0;0;0;0;0;0;0;0;0;0;0;0;0;0;0;0;0;0;0;0;0;0;0;0;0;0;0;0;0;0;0;0;0;0;0;0;0;0;0;0;0;0;0;0;0;0;0;0;0;0;0;0;0;0;0;0;0;0;0;0;0;0;0;0;0;1369;1369;1344;1318;1288;1257;1222;1222;1183;1143;1106;1076;1076;1049;1000;960;1000;1000;1037;1040;1040;1075;1075;1110;1112;1130;1152;1154;1154;1137;1150;1160;1168;1160;1177;1213;1225;1233;1233;1240;1252;1231;1204;1204;1196;1178;1155;1114;1113;1069;1021;963;912;842;842;764;718;663;608;608;564;532;512;480;480;434;415;477;539;539;610;637;579;522;522;473;431;397;348;295;295;280;280;280;321;321;374;410;469;522;522;579;652;694;732;732;777;800;768;719;719;684;725;760;712;666;666;636;600;581;563;563;551;520;493;480;480;502;510;520;523;523;560;563;563;586;570;570;595;608;620;640;640;657;669;679;698;715;735;738;763;794;794;813;782;800;834;834;880;864;881;934;990;990;1000;1008;1039;1080;1080;1096;1113;1159;1213;1213;1226;1211;1227;1315;1315;1357;1405;1470;1480;1480;1446;1392;1347;1358;1285;1285;1177;1097;1056;1000;1000;937;810;728;661;661;614;590;557;526;526;473;366;320;284;280;280;278;310;330;348;348;387;388;360;389;389;375;400;418;454;454;471;495;520;560;560;590;621;667;703;722;780;798;845;905;911;911;897;920;973;1004;1004;999;989;956;929;973;1000;1042;1046;1077;1077;1091;1081;1073;1065;1059;1059;1056;1052;1041;1046;1046;1074;1062;1077;1062;1062;1028;971;928;1000;1000;1011;1047;1111;1112;1112;1093;1094;1085;1105;1136;1136;1181;1241;1313;1390;1390;1437;1523;1574;1624;1624;1672;1725;1713;1680;1680;1680;1636;1636;1650;1650;1650;1609;1609;1567;1537;1537;1564;1567;1565;1577;1577;1598;1600;1532;1373;1373;1208;1118;1083;1011;978;978;1020;1044;1055;1040;1040;1029;1048;1080;1121;1116;1181;1241;1308;1344;1344;1377;1411;1446;1485;1485;1528;1563;1596;1612;1638;1638;1673;1700;1720;1651;1651;1569;1473;1414;1360;1360;1321;1321;1294;1298;1298;1297;1294;1280;1277;1277;1240;1241;1245;1239;1242;1242;1249;1266;1270;1285;1285;1319;1351;1385;1403;1403;1416;1420;1429;1435;1435;1404;1363;1351;1321;1321;1389;1434;1461;1463;1462;1462;1503;1545;1573;1577;1577;1548;1430;1334;1266;1266;1200;1151;1073;993;993;1023;951;944;956;890;890;905;903;851;840;840;847;794;731;756;756;845;909;968;1024;1024;1084;1163;1234;1271;1271;1322;1402;1481;1544;1581;1581;1605;1606;1568;1565;1565;1546;1509;1476;1446;1446;1425;1374;1331;1284;1284;1248;1197;1132;1083;1083;1025;996;961;1009;987;987;974;951;930;895;895;818;862;941;1078;1078;1087;1127;1136;1162;1162;1200;1283;1336;1433;1464;1378;1396;1522;1649;1652;1652;1657;1597;1541;1481;1481;1475;1492;1428;1373;1348;1320;1333;1373;1433;1433;1443;1391;1340;1291;1264;1264;1252;1225;1155;1124;1124;1049;1005;1042;996;996;992;983;1001;993;993;1027;1050;965;969;950;950;930;870;828;828;828;822;823;823;823;823;823;876;881;928;928;1000;1013;1007;1108;1108;1175;1246;1312;1362;1396;1396;1446;1485;1494;1475;1475;1488;1473;1464;1466;1466;1476;1538;1599;1656;1646;1704;1767;1839;1920;1920;1997;2020;1958;1900;1866;1866;1771;1720;1631;1590;1590;1512;1444;1418;1423;1423;1486;1545;1596;1695;1695;1780;1824;1898;1937;1948;1948;1925;2031;2056;2107;2107;2215;2298;2311;2363;2363;2435;2454;2451;2416;2416;0;0;0;0;0;0;0;0;0;0;0;0;0;0;0;0;0;0;0;0;0;0;0;0;0;0;0;0;0;0;0;0;0;0;0;0;0;0;0;0;0;0;0;0;0;0;0;0;0;0;0;0;0;0;0;0;0;0;0;0;0;0;0;0;0;0;0;0;0;0;0;0;0;0;0;0;0;0;0;0;0;0;0;0;0;0;0;0;0;0;0;0;0;0;0;0;0;0;0;0;0;0;0;0;0;0;0;0;0;0;0;0;0;0
0;0;0;0;0;0;0;0;0;0;0;0;0;0;0;0;0;0;0;0;0;0;0;0;0;0;0;0;0;0;0;0;0;0;0;0;0;0;0;0;0;0;0;0;0;0;0;0;0;0;0;0;0;0;0;0;0;0;0;0;0;0;0;0;0;0;0;0;0;0;0;0;0;0;0;0;0;0;0;0;0;0;0;0;0;0;0;0;0;0;0;0;0;0;0;0;0;0;0;0;0;0;0;0;0;0;0;0;0;0;0;0;0;0;0;0;0;0;0;0;0;0;1380;1347;1313;1280;1250;1250;1218;1184;1150;1112;1065;1065;1034;984;960;993;993;1029;1040;1040;1066;1066;1094;1102;1118;1138;1138;1141;1120;1157;1160;1160;1160;1163;1195;1219;1226;1226;1240;1237;1213;1200;1200;1184;1170;1141;1111;1111;1072;1026;964;899;899;832;756;707;652;600;600;560;565;525;481;481;436;400;438;486;486;576;640;582;525;525;478;451;401;343;343;289;280;280;286;338;338;391;447;492;549;549;632;689;731;767;767;797;800;746;695;695;680;713;760;708;708;668;644;597;569;560;560;536;513;481;484;484;520;544;530;556;556;560;560;560;560;560;584;600;600;610;633;633;657;680;706;728;728;753;772;805;880;880;822;801;800;820;820;880;905;958;965;965;986;1018;1032;1059;1096;1096;1124;1155;1190;1245;1245;1280;1292;1311;1353;1353;1388;1445;1490;1456;1456;1415;1364;1320;1323;1323;1274;1189;1116;1026;956;956;921;797;706;630;630;585;560;530;496;496;430;403;333;290;290;279;273;301;322;322;345;390;416;360;395;395;430;439;457;502;502;501;495;520;559;559;605;651;699;778;778;818;848;890;927;960;960;951;949;1000;1025;1025;1040;1035;1031;1023;1023;1040;1070;1088;1105;1105;1124;1120;1107;1096;1096;1088;1085;1096;1090;1089;1089;1098;1102;1114;1084;1084;1044;1001;960;972;972;1034;1090;1145;1158;1158;1140;1168;1135;1122;1122;1159;1200;1250;1321;1383;1395;1459;1520;1583;1651;1651;1699;1729;1727;1680;1680;1680;1594;1602;1618;1580;1580;1552;1559;1519;1501;1501;1523;1526;1518;1546;1546;1566;1562;1457;1288;1288;1231;1097;1053;1012;1012;960;997;1009;1025;1025;1017;1010;1043;1072;1125;1125;1192;1250;1290;1320;1320;1357;1393;1428;1468;1468;1511;1551;1565;1594;1594;1621;1654;1682;1686;1686;1622;1537;1471;1400;1320;1320;1261;1255;1254;1262;1262;1259;1262;1255;1247;1247;1240;1204;1207;1206;1206;1162;1200;1234;1240;1274;1274;1312;1334;1363;1384;1384;1394;1405;1418;1434;1425;1413;1346;1306;1322;1322;1376;1416;1426;1408;1408;1431;1483;1523;1546;1546;1546;1538;1451;1361;1284;1284;1243;1178;1092;1022;1022;920;923;854;850;850;839;844;874;843;811;811;797;762;720;771;771;840;885;942;1023;1023;1094;1160;1224;1272;1272;1344;1423;1496;1537;1537;1566;1545;1545;1540;1525;1525;1512;1485;1452;1416;1416;1386;1350;1307;1262;1262;1183;1146;1103;1057;1057;1001;959;941;981;981;966;950;926;885;810;810;800;863;968;1009;1009;1028;1096;1099;1122;1122;1174;1249;1315;1269;1269;1302;1396;1501;1581;1581;1557;1625;1571;1511;1455;1455;1432;1454;1375;1320;1320;1282;1308;1355;1404;1404;1400;1354;1315;1271;1271;1226;1214;1153;1131;1103;1103;1042;978;941;934;934;929;921;916;936;936;967;956;919;914;914;894;883;837;800;800;800;800;824;823;823;866;901;936;932;952;952;1008;1036;1077;1094;1094;1151;1237;1301;1364;1332;1383;1429;1488;1530;1520;1520;1533;1528;1506;1529;1529;1521;1524;1579;1660;1660;1719;1785;1841;1907;1907;1977;2040;2005;1955;1955;1880;1835;1759;1658;1658;1658;1559;1492;1436;1433;1433;1470;1528;1596;1676;1676;1722;1798;1850;1908;1908;1893;1928;2004;2026;2095;2095;2191;2254;2290;2400;2400;2449;2450;2446;2436;0;0;0;0;0;0;0;0;0;0;0;0;0;0;0;0;0;0;0;0;0;0;0;0;0;0;0;0;0;0;0;0;0;0;0;0;0;0;0;0;0;0;0;0;0;0;0;0;0;0;0;0;0;0;0;0;0;0;0;0;0;0;0;0;0;0;0;0;0;0;0;0;0;0;0;0;0;0;0;0;0;0;0;0;0;0;0;0;0;0;0;0;0;0;0;0;0;0;0;0;0;0;0;0;0;0;0;0;0;0;0;0;0;0;0
0;0;0;0;0;0;0;0;0;0;0;0;0;0;0;0;0;0;0;0;0;0;0;0;0;0;0;0;0;0;0;0;0;0;0;0;0;0;0;0;0;0;0;0;0;0;0;0;0;0;0;0;0;0;0;0;0;0;0;0;0;0;0;0;0;0;0;0;0;0;0;0;0;0;0;0;0;0;0;0;0;0;0;0;0;0;0;0;0;0;0;0;0;0;0;0;0;0;0;0;0;0;0;0;0;0;0;0;0;0;0;0;0;0;0;0;0;0;0;0;0;0;1384;1348;1314;1279;1251;1251;1219;1183;1148;1113;1113;1069;1036;987;960;978;978;1022;1033;1040;1074;1074;1080;1096;1109;1124;1124;1132;1104;1136;1157;1157;1160;1160;1178;1205;1205;1217;1231;1233;1201;1190;1190;1164;1157;1135;1107;1107;1070;1027;972;903;903;832;766;710;663;663;650;604;560;520;520;484;446;400;405;442;442;539;640;589;538;546;499;456;402;344;344;284;280;280;291;291;341;397;452;507;568;568;637;696;756;800;800;817;786;724;675;675;656;698;745;710;710;672;644;600;573;573;554;532;520;519;516;516;529;560;560;560;560;560;561;590;585;585;605;617;624;621;621;635;668;686;714;741;741;769;801;871;898;898;862;812;811;835;835;876;908;974;1012;1012;1025;1040;1040;1070;1070;1120;1149;1172;1209;1248;1256;1288;1320;1361;1383;1383;1422;1480;1500;1431;1431;1376;1341;1290;1280;1254;1257;1202;1109;1027;1027;919;865;788;701;632;632;585;535;495;491;491;479;411;341;293;293;278;273;297;317;317;346;395;440;467;467;441;476;499;494;521;521;520;515;534;569;569;589;659;724;797;797;862;890;919;944;944;973;990;998;1014;1041;1041;1092;1107;1074;1068;1068;1088;1104;1132;1142;1142;1147;1141;1133;1121;1121;1120;1120;1102;1114;1114;1125;1141;1152;1155;1118;1118;1081;1042;990;999;1036;1062;1105;1169;1265;1265;1263;1269;1246;1160;1160;1187;1222;1263;1321;1331;1388;1440;1510;1584;1652;1652;1706;1720;1697;1657;1657;1607;1559;1518;1527;1527;1527;1518;1514;1473;1473;1468;1490;1481;1480;1515;1515;1522;1514;1441;1274;1274;1224;1123;1023;972;972;925;961;982;1000;1000;996;1002;1040;1080;1080;1143;1198;1235;1264;1301;1301;1342;1377;1413;1443;1443;1461;1511;1550;1579;1579;1607;1640;1665;1674;1674;1598;1520;1450;1381;1381;1334;1291;1240;1217;1227;1227;1224;1226;1223;1211;1211;1212;1181;1160;1126;1126;1135;1163;1206;1207;1207;1252;1280;1306;1335;1335;1358;1374;1398;1400;1408;1408;1410;1345;1280;1306;1306;1353;1384;1372;1360;1360;1432;1483;1491;1504;1504;1523;1523;1483;1379;1310;1310;1206;1138;1081;1002;1002;920;891;858;801;801;800;800;831;836;836;760;734;720;735;817;844;904;945;965;1011;1011;1089;1158;1223;1288;1288;1365;1436;1487;1527;1503;1503;1510;1515;1509;1509;1491;1473;1457;1423;1389;1389;1359;1321;1281;1208;1208;1160;1117;1064;1025;1025;987;929;909;946;946;941;919;920;832;832;760;804;902;946;946;946;1039;1063;1060;1096;1096;1145;1161;1190;1226;1226;1313;1440;1440;1509;1509;1542;1588;1540;1472;1472;1429;1360;1367;1345;1290;1290;1254;1287;1338;1371;1371;1348;1318;1279;1248;1248;1186;1145;1129;1106;1106;1077;1042;961;885;865;865;870;870;866;888;871;923;881;858;855;855;845;820;789;800;800;831;840;872;942;942;940;941;984;987;960;960;1005;1054;1118;1129;1129;1144;1207;1243;1297;1297;1354;1414;1471;1542;1542;1560;1576;1563;1554;1554;1567;1572;1575;1595;1657;1657;1713;1760;1829;1893;1893;1964;2040;2040;1988;1988;1960;1857;1729;1730;1730;1715;1598;1538;1459;1440;1440;1460;1520;1574;1637;1623;1702;1763;1802;1870;1870;1835;1901;1948;2004;2004;2117;2197;2207;2269;2352;2352;2448;2451;0;0;0;0;0;0;0;0;0;0;0;0;0;0;0;0;0;0;0;0;0;0;0;0;0;0;0;0;0;0;0;0;0;0;0;0;0;0;0;0;0;0;0;0;0;0;0;0;0;0;0;0;0;0;0;0;0;0;0;0;0;0;0;0;0;0;0;0;0;0;0;0;0;0;0;0;0;0;0;0;0;0;0;0;0;0;0;0;0;0;0;0;0;0;0;0;0;0;0;0;0;0;0;0;0;0;0;0;0;0;0;0;0;0;0;0;0
0;0;0;0;0;0;0;0;0;0;0;0;0;0;0;0;0;0;0;0;0;0;0;0;0;0;0;0;0;0;0;0;0;0;0;0;0;0;0;0;0;0;0;0;0;0;0;0;0;0;0;0;0;0;0;0;0;0;0;0;0;0;0;0;0;0;0;0;0;0;0;0;0;0;0;0;0;0;0;0;0;0;0;0;0;0;0;0;0;0;0;0;0;0;0;0;0;0;0;0;0;0;0;0;0;0;0;0;0;0;0;0;0;0;0;0;0;0;0;0;0;1385;1385;1346;1309;1275;1246;1246;1206;1167;1129;1095;1095;1061;1005;983;932;932;950;999;1039;1064;1080;1080;1080;1084;1097;1110;1110;1108;1104;1128;1148;1148;1160;1160;1162;1196;1196;1211;1220;1214;1189;1175;1160;1160;1151;1129;1104;1104;1064;1024;983;932;932;832;779;737;690;690;652;601;549;512;512;490;460;415;400;400;424;524;600;591;536;536;490;453;399;347;347;290;277;276;285;285;342;400;455;513;513;576;644;707;769;769;824;830;763;705;656;656;641;660;711;699;699;661;641;600;572;572;549;525;520;520;520;520;550;560;548;527;527;541;573;604;625;625;603;637;639;645;645;689;694;707;729;729;756;788;839;924;924;910;862;840;835;846;846;894;920;963;1034;1034;1074;1072;1062;1081;1081;1123;1159;1186;1224;1224;1256;1287;1318;1378;1378;1400;1440;1481;1482;1414;1414;1344;1320;1255;1238;1238;1278;1210;1109;1021;1021;909;846;760;697;697;660;605;557;544;548;548;485;410;336;300;300;277;273;301;317;317;350;394;435;480;480;486;517;551;560;560;539;532;525;572;585;585;646;669;726;809;809;880;906;931;958;958;991;1018;1039;1053;1088;1095;1112;1141;1119;1110;1110;1124;1144;1172;1178;1178;1171;1160;1160;1136;1136;1117;1095;1089;1117;1117;1149;1178;1194;1186;1186;1157;1123;1075;1090;1080;1080;1092;1142;1217;1281;1281;1320;1326;1303;1240;1240;1243;1288;1331;1374;1374;1428;1466;1531;1590;1590;1658;1703;1720;1685;1619;1619;1573;1486;1468;1473;1473;1473;1454;1460;1418;1418;1440;1453;1434;1449;1449;1423;1458;1468;1373;1259;1259;1175;1104;1015;939;939;918;946;967;984;965;960;994;1029;1083;1083;1140;1180;1206;1246;1246;1292;1326;1361;1398;1408;1408;1439;1492;1536;1569;1569;1598;1628;1648;1651;1651;1622;1533;1437;1400;1400;1355;1288;1248;1200;1200;1181;1184;1183;1185;1179;1179;1172;1160;1138;1118;1118;1097;1130;1160;1182;1182;1218;1245;1281;1311;1311;1333;1333;1359;1390;1390;1395;1396;1345;1249;1286;1286;1322;1346;1321;1364;1364;1409;1440;1466;1480;1480;1496;1498;1450;1371;1371;1280;1186;1116;1033;953;1028;956;945;913;855;855;821;781;784;774;774;734;681;720;782;818;887;978;996;1058;1058;1088;1111;1160;1224;1296;1296;1365;1442;1457;1466;1466;1466;1476;1483;1477;1477;1460;1437;1423;1391;1391;1367;1336;1272;1225;1225;1184;1141;1087;1024;987;987;958;920;880;914;914;915;879;861;816;816;724;841;861;877;877;914;1000;1031;1018;1041;1041;1068;1105;1135;1209;1209;1277;1372;1381;1436;1436;1542;1554;1494;1448;1419;1373;1330;1324;1329;1329;1273;1240;1266;1312;1333;1333;1296;1272;1252;1200;1200;1161;1127;1096;1080;1080;1041;1015;961;887;887;831;823;822;768;760;760;817;811;794;778;778;782;775;772;829;829;879;945;959;997;997;1009;998;1023;1016;1016;986;1050;1086;1142;1176;1176;1225;1221;1219;1257;1257;1325;1395;1448;1513;1513;1572;1631;1612;1599;1599;1657;1655;1622;1599;1599;1667;1720;1771;1834;1902;1902;1976;2053;2094;2044;2010;1929;1819;1800;1785;1785;1725;1647;1606;1494;1494;1454;1448;1508;1534;1585;1585;1660;1707;1793;1817;1817;1800;1850;1920;2008;2008;2096;2159;2160;2274;2274;2337;2398;2422;2429;0;0;0;0;0;0;0;0;0;0;0;0;0;0;0;0;0;0;0;0;0;0;0;0;0;0;0;0;0;0;0;0;0;0;0;0;0;0;0;0;0;0;0;0;0;0;0;0;0;0;0;0;0;0;0;0;0;0;0;0;0;0;0;0;0;0;0;0;0;0;0;0;0;0;0;0;0;0;0;0;0;0;0;0;0;0;0;0;0;0;0;0;0;0;0;0;0;0;0;0;0;0;0;0;0;0;0;0;0;0;0;0;0;0;0;0
0;0;0;0;0;0;0;0;0;0;0;0;0;0;0;0;0;0;0;0;0;0;0;0;0;0;0;0;0;0;0;0;0;0;0;0;0;0;0;0;0;0;0;0;0;0;0;0;0;0;0;0;0;0;0;0;0;0;0;0;0;0;0;0;0;0;0;0;0;0;0;0;0;0;0;0;0;0;0;0;0;0;0;0;0;0;0;0;0;0;0;0;0;0;0;0;0;0;0;0;0;0;0;0;0;0;0;0;0;0;0;0;0;0;0;0;0;0;0;0;0;1380;1377;1337;1300;1265;1231;1231;1191;1154;1118;1066;1059;1007;986;960;945;945;932;983;1034;1074;1074;1077;1064;1074;1084;1093;1093;1100;1098;1126;1146;1146;1160;1160;1162;1187;1187;1215;1220;1205;1170;1170;1156;1145;1138;1120;1120;1101;1060;1022;982;926;926;832;774;723;686;686;650;602;546;507;507;484;457;425;387;387;421;462;556;589;589;535;486;451;401;347;347;295;273;273;285;285;340;401;456;512;512;577;643;702;764;764;824;807;745;689;689;629;601;641;692;695;695;650;640;599;564;564;546;520;520;520;502;520;537;539;520;520;530;554;579;617;640;640;641;645;656;682;682;711;725;735;755;755;779;814;918;953;953;917;873;867;903;903;890;894;941;991;1029;1029;1080;1101;1094;1088;1088;1126;1160;1196;1232;1232;1261;1290;1356;1397;1397;1381;1413;1439;1455;1455;1388;1296;1266;1220;1200;1200;1267;1203;1094;1008;1008;958;858;773;713;713;661;614;581;599;599;560;488;405;338;288;288;273;273;291;318;325;359;390;434;485;485;517;531;560;549;549;537;554;560;582;599;640;690;714;744;799;799;864;911;942;976;976;1013;1045;1071;1122;1122;1131;1137;1160;1152;1152;1141;1163;1185;1200;1200;1200;1197;1160;1127;1103;1103;1084;1080;1084;1117;1117;1159;1180;1194;1201;1201;1200;1148;1115;1108;1108;1115;1123;1173;1252;1252;1305;1360;1360;1322;1280;1280;1321;1357;1384;1415;1415;1458;1506;1569;1613;1613;1658;1701;1720;1667;1667;1612;1517;1442;1420;1426;1426;1426;1402;1402;1372;1372;1410;1411;1388;1421;1382;1390;1411;1365;1323;1323;1224;1146;1068;1000;1000;936;898;923;945;945;945;960;987;1024;1083;1083;1118;1154;1189;1238;1238;1281;1313;1320;1355;1355;1389;1434;1478;1523;1563;1563;1591;1615;1630;1634;1634;1614;1517;1446;1399;1399;1361;1332;1273;1223;1223;1198;1139;1135;1144;1144;1138;1100;1107;1120;1120;1120;1080;1090;1137;1147;1147;1182;1213;1243;1284;1284;1283;1310;1338;1374;1374;1380;1368;1327;1251;1251;1247;1286;1303;1281;1337;1337;1376;1397;1436;1453;1453;1464;1473;1403;1306;1306;1229;1164;1098;1080;1080;1035;1009;1012;942;892;892;879;819;750;731;731;680;713;802;849;849;960;1013;1048;1129;1129;1130;1147;1181;1241;1241;1299;1365;1408;1425;1432;1432;1439;1450;1451;1446;1446;1425;1395;1385;1365;1365;1301;1275;1237;1187;1187;1150;1121;1068;1003;1003;946;928;891;858;874;831;850;847;832;778;778;699;791;817;839;839;884;966;995;971;899;1000;1019;1044;1120;1208;1208;1249;1288;1350;1495;1495;1543;1510;1463;1388;1388;1346;1303;1289;1304;1304;1255;1211;1243;1282;1282;1290;1255;1200;1188;1168;1168;1135;1103;1071;1024;1024;1005;981;934;882;882;805;760;760;760;760;760;764;764;764;764;764;764;781;794;859;859;936;976;1006;1019;1019;1052;1050;1077;1056;1056;1027;1086;1127;1162;1186;1219;1263;1271;1263;1267;1267;1307;1364;1420;1504;1504;1576;1643;1656;1703;1703;1708;1698;1676;1640;1640;1692;1748;1802;1841;1841;1909;1974;2065;2071;1993;1993;1933;1901;1881;1837;1837;1785;1723;1646;1528;1528;1478;1480;1480;1518;1518;1568;1630;1697;1761;1756;1756;1759;1826;1901;1977;1977;2033;2082;2154;2258;2258;2308;2351;2396;2419;2419;0;0;0;0;0;0;0;0;0;0;0;0;0;0;0;0;0;0;0;0;0;0;0;0;0;0;0;0;0;0;0;0;0;0;0;0;0;0;0;0;0;0;0;0;0;0;0;0;0;0;0;0;0;0;0;0;0;0;0;0;0;0;0;0;0;0;0;0;0;0;0;0;0;0;0;0;0;0;0;0;0;0;0;0;0;0;0;0;0;0;0;0;0;0;0;0;0;0;0;0;0;0;0;0;0;0;0;0;0;0;0;0;0;0;0
0;0;0;0;0;0;0;0;0;0;0;0;0;0;0;0;0;0;0;0;0;0;0;0;0;0;0;0;0;0;0;0;0;0;0;0;0;0;0;0;0;0;0;0;0;0;0;0;0;0;0;0;0;0;0;0;0;0;0;0;0;0;0;0;0;0;0;0;0;0;0;0;0;0;0;0;0;0;0;0;0;0;0;0;0;0;0;0;0;0;0;0;0;0;0;0;0;0;0;0;0;0;0;0;0;0;0;0;0;0;0;0;0;0;0;0;0;0;0;0;0;1378;1365;1325;1287;1250;1250;1212;1168;1118;1080;1040;1040;1023;1022;999;967;967;920;968;1029;1080;1080;1073;1045;1043;1063;1063;1087;1095;1086;1119;1141;1141;1159;1167;1172;1196;1196;1214;1220;1200;1169;1169;1147;1131;1122;1117;1117;1094;1058;1021;980;980;907;845;771;725;685;685;640;603;545;505;505;479;447;412;374;374;369;439;529;574;574;539;491;441;403;403;353;302;273;273;281;283;344;406;464;522;522;588;651;703;763;763;811;789;729;658;658;616;600;629;679;679;693;644;640;595;561;561;532;520;506;500;500;520;520;520;525;525;543;578;601;629;629;664;670;687;696;706;706;726;759;770;791;791;812;860;945;960;960;920;914;930;950;950;920;907;951;1000;1000;1058;1090;1120;1104;1081;1081;1103;1136;1183;1238;1238;1278;1315;1400;1371;1371;1351;1381;1403;1412;1412;1317;1270;1229;1200;1200;1172;1208;1189;1099;1078;1078;958;854;776;724;724;664;618;627;624;624;556;476;392;329;329;273;273;273;286;286;320;339;377;427;483;483;540;558;537;512;512;520;551;594;633;633;668;709;774;805;805;830;880;933;961;999;999;1037;1102;1131;1151;1151;1160;1160;1160;1160;1160;1162;1195;1217;1200;1200;1200;1146;1122;1095;1095;1070;1047;1055;1090;1120;1120;1154;1138;1155;1190;1190;1143;1118;1097;1091;1091;1098;1118;1161;1250;1250;1300;1345;1364;1353;1400;1397;1384;1404;1440;1464;1464;1500;1539;1584;1620;1620;1652;1698;1720;1675;1675;1619;1558;1485;1401;1401;1377;1377;1366;1362;1334;1334;1373;1370;1315;1338;1338;1364;1349;1269;1256;1256;1210;1123;1062;1009;1009;928;880;880;899;899;935;960;982;1024;1060;1060;1091;1134;1182;1225;1225;1260;1261;1308;1356;1356;1395;1426;1458;1504;1504;1555;1577;1601;1611;1611;1596;1592;1505;1436;1381;1381;1359;1334;1296;1268;1268;1233;1148;1080;1093;1041;1059;1067;1080;1096;1096;1103;1085;1061;1113;1109;1109;1151;1183;1204;1224;1224;1261;1290;1320;1356;1356;1380;1355;1308;1257;1257;1201;1241;1259;1261;1261;1307;1336;1356;1402;1421;1421;1428;1436;1372;1290;1290;1215;1192;1157;1133;1133;1101;1077;1022;987;987;955;916;855;792;707;707;680;723;806;880;880;956;1026;1091;1135;1135;1159;1181;1221;1258;1258;1298;1344;1381;1391;1391;1397;1399;1415;1421;1410;1410;1394;1366;1352;1333;1287;1252;1228;1207;1159;1159;1119;1086;1037;995;995;927;896;856;763;763;791;800;809;801;726;726;686;767;770;790;790;830;920;830;875;875;952;952;1026;1062;1062;1114;1177;1277;1383;1383;1413;1426;1438;1403;1359;1359;1321;1279;1244;1268;1268;1234;1200;1219;1257;1257;1212;1184;1172;1160;1160;1139;1111;1082;1044;967;967;957;929;903;846;822;760;760;802;813;813;814;775;790;803;803;792;794;825;827;853;878;946;1007;1030;1056;1056;1101;1126;1148;1100;1100;1095;1132;1174;1233;1233;1241;1280;1295;1312;1312;1315;1319;1362;1424;1424;1516;1588;1609;1677;1743;1743;1755;1737;1730;1684;1684;1717;1770;1837;1886;1886;1921;2008;2076;2097;2097;2051;1988;1975;1944;1903;1903;1853;1761;1649;1599;1599;1572;1517;1480;1513;1513;1558;1599;1659;1688;1688;1714;1780;1858;1926;1932;1932;2000;2050;2142;2232;2232;2262;2326;2382;2405;2405;0;0;0;0;0;0;0;0;0;0;0;0;0;0;0;0;0;0;0;0;0;0;0;0;0;0;0;0;0;0;0;0;0;0;0;0;0;0;0;0;0;0;0;0;0;0;0;0;0;0;0;0;0;0;0;0;0;0;0;0;0;0;0;0;0;0;0;0;0;0;0;0;0;0;0;0;0;0;0;0;0;0;0;0;0;0;0;0;0;0;0;0;0;0;0;0;0;0;0;0;0;0;0;0;0;0;0;0;0;0;0;0;0;0;0
0;0;0;0;0;0;0;0;0;0;0;0;0;0;0;0;0;0;0;0;0;0;0;0;0;0;0;0;0;0;0;0;0;0;0;0;0;0;0;0;0;0;0;0;0;0;0;0;0;0;0;0;0;0;0;0;0;0;0;0;0;0;0;0;0;0;0;0;0;0;0;0;0;0;0;0;0;0;0;0;0;0;0;0;0;0;0;0;0;0;0;0;0;0;0;0;0;0;0;0;0;0;0;0;0;0;0;0;0;0;0;0;0;0;0;0;0;0;0;0;0;1372;1353;1315;1278;1239;1239;1205;1160;1123;1091;1091;1067;1040;1040;1011;971;971;920;949;1021;1075;1075;1061;1033;1036;1051;1051;1079;1080;1080;1109;1109;1144;1166;1177;1185;1185;1199;1212;1218;1196;1169;1169;1147;1130;1120;1101;1101;1085;1053;1016;973;963;917;868;780;731;731;688;643;591;545;545;511;484;458;421;366;366;359;416;488;560;560;543;496;457;416;416;360;309;273;273;273;285;342;406;462;522;522;589;659;722;785;785;800;773;692;641;641;600;577;617;666;666;680;644;621;588;588;560;523;501;500;500;500;510;520;520;546;546;560;585;619;652;652;719;744;724;728;728;740;756;799;818;823;823;853;912;938;911;874;884;881;936;960;960;960;958;966;1029;1029;1066;1084;1088;1085;1041;1051;1081;1120;1167;1167;1228;1299;1354;1389;1337;1337;1317;1342;1367;1360;1360;1298;1233;1191;1183;1183;1133;1164;1200;1160;1160;1059;955;859;778;723;723;674;648;673;605;605;545;461;393;326;326;273;273;273;288;288;325;349;385;434;434;492;551;540;505;480;480;520;560;595;654;654;706;749;808;858;858;890;914;962;987;987;1043;1084;1124;1157;1160;1160;1152;1137;1135;1146;1146;1169;1200;1213;1196;1147;1132;1113;1087;1061;1061;1036;1030;1061;1092;1092;1107;1120;1099;1109;1115;1115;1106;1088;1076;1073;1073;1088;1116;1151;1223;1223;1264;1313;1372;1409;1409;1434;1429;1449;1475;1475;1505;1540;1567;1602;1630;1630;1657;1686;1719;1653;1653;1599;1542;1488;1438;1438;1365;1365;1314;1306;1306;1300;1289;1283;1287;1299;1299;1322;1265;1187;1187;1187;1188;1080;1014;990;990;913;843;848;883;883;932;949;966;1005;1005;1028;1080;1124;1168;1205;1174;1216;1260;1305;1343;1343;1377;1415;1453;1487;1487;1525;1554;1571;1591;1569;1577;1571;1495;1420;1420;1370;1320;1303;1277;1263;1263;1243;1151;1109;1053;1053;1028;1034;1043;1059;1059;1069;1046;1043;1080;1080;1072;1124;1108;1137;1137;1208;1236;1270;1301;1338;1338;1367;1372;1323;1269;1269;1200;1160;1189;1233;1233;1268;1295;1323;1359;1359;1382;1395;1395;1368;1308;1308;1275;1219;1210;1179;1179;1160;1115;1060;1044;1044;1005;934;871;808;816;745;680;711;797;908;908;960;1002;1078;1116;1116;1144;1185;1230;1244;1244;1282;1324;1355;1361;1361;1367;1364;1377;1387;1387;1373;1368;1349;1286;1234;1234;1210;1182;1164;1145;1145;1120;1075;1007;963;963;914;866;776;714;714;747;743;741;748;748;702;699;715;718;743;743;727;758;764;815;815;877;893;927;1017;1017;1110;1136;1190;1257;1257;1343;1426;1402;1373;1373;1334;1296;1260;1218;1226;1226;1201;1171;1194;1224;1179;1160;1153;1141;1119;1119;1109;1091;1059;1012;1012;927;903;883;836;790;790;760;790;840;880;880;882;841;854;853;853;847;854;908;899;899;921;951;1013;1062;1062;1091;1147;1178;1180;1120;1120;1135;1216;1273;1279;1279;1280;1334;1338;1372;1372;1370;1351;1333;1417;1417;1472;1530;1591;1666;1666;1740;1773;1770;1778;1748;1748;1720;1785;1855;1922;1917;1980;2030;2092;2147;2147;2097;2070;2028;1976;1976;1911;1837;1717;1681;1711;1711;1609;1563;1510;1517;1517;1545;1579;1624;1640;1640;1711;1788;1846;1875;1875;1900;1972;2040;2132;2132;2178;2229;2315;2365;2396;2396;2400;0;0;0;0;0;0;0;0;0;0;0;0;0;0;0;0;0;0;0;0;0;0;0;0;0;0;0;0;0;0;0;0;0;0;0;0;0;0;0;0;0;0;0;0;0;0;0;0;0;0;0;0;0;0;0;0;0;0;0;0;0;0;0;0;0;0;0;0;0;0;0;0;0;0;0;0;0;0;0;0;0;0;0;0;0;0;0;0;0;0;0;0;0;0;0;0;0;0;0;0;0;0;0;0;0;0;0;0;0;0;0;0;0;0
0;0;0;0;0;0;0;0;0;0;0;0;0;0;0;0;0;0;0;0;0;0;0;0;0;0;0;0;0;0;0;0;0;0;0;0;0;0;0;0;0;0;0;0;0;0;0;0;0;0;0;0;0;0;0;0;0;0;0;0;0;0;0;0;0;0;0;0;0;0;0;0;0;0;0;0;0;0;0;0;0;0;0;0;0;0;0;0;0;0;0;0;0;0;0;0;0;0;0;0;0;0;0;0;0;0;0;0;0;0;0;0;0;0;0;0;0;0;0;0;0;0;1345;1308;1270;1231;1231;1200;1170;1137;1102;1102;1080;1040;1028;996;996;960;920;949;1007;1055;1040;1042;1020;1021;1040;1040;1069;1080;1080;1110;1110;1148;1165;1180;1191;1191;1199;1215;1220;1193;1193;1160;1149;1134;1115;1086;1086;1078;1044;992;944;944;900;856;790;737;737;694;639;594;556;556;520;489;447;413;413;369;340;390;463;530;530;548;501;456;412;412;358;310;273;273;273;285;339;399;446;446;516;587;651;719;719;786;796;745;678;630;630;589;560;606;656;656;680;650;604;587;587;553;530;511;500;500;500;523;540;539;557;557;585;610;641;681;702;739;793;776;767;767;784;806;840;840;840;847;875;870;884;840;840;857;871;925;954;954;935;984;1022;1062;1062;1080;1074;1023;1005;1005;1036;1078;1127;1176;1176;1231;1304;1382;1353;1353;1307;1284;1269;1294;1325;1325;1288;1219;1167;1144;1144;1118;1118;1200;1152;1152;1051;937;834;780;780;729;692;694;675;594;594;524;459;400;326;326;320;279;273;293;293;333;361;401;454;454;509;547;504;472;472;476;512;550;606;669;669;727;790;826;878;878;912;952;995;1050;1050;1073;1106;1132;1140;1140;1122;1103;1097;1085;1085;1097;1138;1182;1084;1097;1097;1089;1077;1052;1028;1028;1001;1018;1062;1080;1080;1081;1095;1032;1060;1060;1076;1069;1059;1057;1058;1058;1078;1109;1144;1191;1191;1241;1299;1371;1412;1412;1440;1448;1484;1518;1518;1539;1560;1581;1614;1614;1647;1675;1680;1687;1599;1599;1553;1528;1450;1425;1425;1387;1387;1333;1252;1269;1224;1233;1232;1242;1242;1256;1280;1174;1121;1121;1136;1155;1066;968;920;920;895;852;840;887;887;920;926;960;1008;1008;1034;1064;1105;1151;1151;1180;1222;1263;1311;1351;1351;1376;1394;1427;1460;1460;1497;1533;1528;1546;1546;1559;1560;1486;1417;1417;1361;1314;1274;1261;1261;1250;1240;1200;1147;1067;1067;1028;1026;987;1032;1032;1040;1000;1039;1042;1042;1002;1017;1054;1117;1117;1191;1221;1249;1279;1279;1316;1347;1364;1345;1290;1296;1224;1152;1160;1195;1195;1233;1258;1300;1326;1326;1345;1356;1370;1345;1314;1280;1256;1240;1240;1200;1200;1182;1133;1112;1087;1087;1020;952;889;799;799;736;680;697;787;787;885;908;988;1071;1071;1085;1128;1156;1202;1226;1226;1260;1303;1332;1333;1333;1335;1333;1338;1349;1349;1350;1341;1300;1247;1247;1195;1169;1138;1129;1129;1116;1102;1055;996;940;940;865;801;749;680;680;700;689;672;674;674;669;659;660;681;651;656;669;678;700;732;732;764;860;956;983;983;1014;1061;1164;1278;1278;1337;1390;1355;1343;1343;1307;1269;1226;1200;1200;1185;1165;1152;1141;1137;1137;1107;1121;1108;1077;1077;1059;1050;1033;980;980;903;836;775;783;783;760;760;809;857;893;893;916;904;921;898;898;975;964;958;971;971;976;1000;1014;1084;1084;1134;1202;1231;1198;1198;1163;1223;1258;1320;1324;1324;1314;1390;1385;1398;1398;1432;1392;1381;1411;1400;1465;1527;1598;1659;1659;1716;1778;1815;1820;1820;1803;1775;1786;1872;1912;1912;1973;2032;2095;2162;2162;2148;2117;2091;2010;2010;1911;1812;1851;1813;1813;1717;1677;1599;1545;1520;1520;1547;1571;1606;1666;1666;1720;1749;1791;1804;1804;1893;1960;2019;2092;2092;2160;2236;2339;2351;2351;2354;2376;0;0;0;0;0;0;0;0;0;0;0;0;0;0;0;0;0;0;0;0;0;0;0;0;0;0;0;0;0;0;0;0;0;0;0;0;0;0;0;0;0;0;0;0;0;0;0;0;0;0;0;0;0;0;0;0;0;0;0;0;0;0;0;0;0;0;0;0;0;0;0;0;0;0;0;0;0;0;0;0;0;0;0;0;0;0;0;0;0;0;0;0;0;0;0;0;0;0;0;0;0;0;0;0;0;0;0;0;0;0;0;0;0;0
0;0;0;0;0;0;0;0;0;0;0;0;0;0;0;0;0;0;0;0;0;0;0;0;0;0;0;0;0;0;0;0;0;0;0;0;0;0;0;0;0;0;0;0;0;0;0;0;0;0;0;0;0;0;0;0;0;0;0;0;0;0;0;0;0;0;0;0;0;0;0;0;0;0;0;0;0;0;0;0;0;0;0;0;0;0;0;0;0;0;0;0;0;0;0;0;0;0;0;0;0;0;0;0;0;0;0;0;0;0;0;0;0;0;0;0;0;0;0;0;0;0;1338;1303;1264;1223;1223;1193;1163;1130;1098;1098;1065;1040;1010;978;978;964;920;930;968;968;1032;1033;1004;1009;1034;1034;1056;1060;1062;1114;1114;1147;1165;1180;1195;1195;1207;1220;1220;1192;1192;1160;1146;1131;1115;1115;1080;1063;1017;975;926;926;883;838;791;732;732;692;638;592;561;561;521;480;438;410;410;379;340;362;422;422;488;542;507;464;417;422;370;319;275;273;273;274;340;396;459;459;519;588;658;725;718;782;781;728;666;666;620;577;560;592;628;628;680;652;602;560;560;560;537;520;493;493;509;547;560;567;567;585;611;636;705;750;750;773;819;826;817;817;835;840;840;840;840;846;834;797;800;800;823;839;851;885;885;902;895;951;1039;1061;1061;1060;1004;977;988;988;1035;1087;1136;1186;1186;1236;1298;1360;1315;1315;1238;1216;1238;1264;1264;1300;1265;1212;1155;1107;1107;1085;1085;1171;1126;1100;1025;923;835;774;774;720;720;728;668;668;586;511;449;403;395;367;329;277;273;286;286;334;376;421;475;475;520;504;470;400;400;440;483;537;615;615;689;748;804;844;889;889;930;973;1032;1076;1076;1104;1120;1120;1095;1095;1073;1051;1041;1026;1026;1042;1049;1059;1014;1014;1041;1034;1031;1007;992;992;1000;1024;1048;1065;1065;1010;1030;1000;1035;1035;1027;1032;1022;1034;1034;1051;1080;1110;1144;1144;1212;1280;1320;1374;1399;1399;1434;1458;1480;1507;1507;1538;1560;1587;1608;1598;1632;1665;1673;1667;1667;1566;1516;1484;1405;1400;1400;1380;1380;1320;1315;1315;1219;1178;1171;1191;1191;1203;1205;1114;1070;1070;1094;1120;1049;967;967;883;846;819;851;882;882;903;920;958;1018;1018;1040;1072;1100;1136;1136;1183;1240;1279;1310;1310;1324;1341;1373;1411;1446;1446;1468;1492;1506;1525;1525;1537;1552;1486;1420;1420;1358;1305;1259;1243;1243;1221;1222;1206;1144;1144;1084;1046;1038;982;998;998;1040;1000;1010;920;920;941;965;1036;1097;1097;1170;1202;1227;1258;1258;1296;1332;1360;1360;1360;1333;1256;1149;1125;1152;1152;1187;1235;1270;1286;1286;1310;1324;1289;1276;1276;1248;1221;1217;1205;1205;1199;1178;1160;1129;1090;1090;1022;907;844;777;777;716;653;695;806;806;857;870;978;1068;1068;1041;1098;1146;1183;1183;1202;1236;1282;1305;1307;1307;1300;1289;1303;1310;1274;1303;1295;1265;1219;1219;1171;1130;1099;1086;1086;1087;1076;1023;968;936;880;828;768;718;680;680;644;639;639;640;640;653;646;647;647;647;657;660;660;660;660;675;729;792;851;851;915;1020;1047;1097;1151;1151;1215;1301;1314;1304;1304;1278;1245;1193;1165;1165;1147;1062;1104;1086;1086;1081;1046;1077;1070;995;995;970;951;972;937;937;854;764;760;746;746;760;761;821;883;883;921;968;957;988;1053;1053;1033;1009;1019;1037;1037;1032;1070;1080;1131;1131;1193;1241;1275;1258;1258;1200;1261;1301;1367;1367;1379;1367;1431;1443;1446;1446;1464;1448;1485;1455;1455;1465;1515;1569;1630;1630;1701;1766;1835;1864;1864;1849;1830;1872;1890;1890;1934;1978;2027;2089;2157;2157;2200;2132;2069;1991;1991;1932;1937;1910;1878;1878;1810;1717;1614;1583;1583;1537;1536;1570;1598;1598;1624;1672;1717;1748;1790;1790;1871;1927;1980;2080;2080;2152;2237;2314;2324;2275;2317;2347;0;0;0;0;0;0;0;0;0;0;0;0;0;0;0;0;0;0;0;0;0;0;0;0;0;0;0;0;0;0;0;0;0;0;0;0;0;0;0;0;0;0;0;0;0;0;0;0;0;0;0;0;0;0;0;0;0;0;0;0;0;0;0;0;0;0;0;0;0;0;0;0;0;0;0;0;0;0;0;0;0;0;0;0;0;0;0;0;0;0;0;0;0;0;0;0;0;0;0;0;0;0;0;0;0;0;0;0;0;0;0;0;0;0
0;0;0;0;0;0;0;0;0;0;0;0;0;0;0;0;0;0;0;0;0;0;0;0;0;0;0;0;0;0;0;0;0;0;0;0;0;0;0;0;0;0;0;0;0;0;0;0;0;0;0;0;0;0;0;0;0;0;0;0;0;0;0;0;0;0;0;0;0;0;0;0;0;0;0;0;0;0;0;0;0;0;0;0;0;0;0;0;0;0;0;0;0;0;0;0;0;0;0;0;0;0;0;0;0;0;0;0;0;0;0;0;0;0;0;0;0;0;0;0;0;0;1330;1290;1253;1253;1218;1185;1152;1120;1084;1084;1058;1040;1028;1000;1000;983;926;901;957;957;1031;1030;1007;1002;1002;1028;1040;1043;1066;1113;1113;1143;1167;1180;1199;1199;1214;1226;1219;1192;1192;1160;1140;1126;1112;1112;1062;1040;1010;969;969;912;868;824;782;782;727;684;636;589;560;550;519;491;449;415;415;377;340;340;377;377;450;474;484;459;425;401;374;327;281;273;273;275;341;396;461;461;521;591;649;712;712;776;765;713;653;653;608;562;541;573;573;619;680;643;583;560;560;545;518;503;480;480;527;560;560;582;582;609;656;695;745;745;788;800;823;840;840;840;840;840;809;807;807;800;787;761;800;800;811;806;829;863;863;844;883;954;1022;1022;1005;981;963;960;996;996;1039;1097;1143;1192;1192;1243;1305;1350;1291;1270;1218;1190;1205;1228;1228;1260;1251;1191;1151;1151;1092;1043;1051;1091;1090;1090;1007;896;818;758;758;692;700;751;665;665;584;504;460;395;395;371;338;285;273;273;284;360;400;440;487;487;493;416;409;400;400;456;509;559;638;638;705;769;803;843;843;883;920;971;1028;1088;1088;1120;1111;1082;1046;1046;1031;996;1006;972;972;970;1007;1022;966;966;977;958;959;955;955;960;988;1012;1021;1031;1000;980;991;979;1000;1000;978;982;1000;1033;1033;1054;1080;1117;1150;1150;1202;1255;1303;1362;1362;1384;1414;1444;1479;1503;1503;1527;1550;1578;1599;1599;1625;1648;1642;1640;1640;1555;1485;1447;1378;1378;1361;1367;1316;1316;1320;1320;1263;1215;1166;1148;1148;1138;1082;1058;1017;1017;1052;1020;1040;978;978;906;835;800;848;848;880;880;915;960;1011;996;1041;1057;1091;1126;1126;1200;1240;1265;1282;1282;1311;1330;1368;1409;1394;1422;1444;1465;1483;1483;1505;1515;1525;1507;1430;1430;1364;1308;1256;1217;1217;1208;1220;1196;1119;1119;1068;1040;1014;959;959;968;1023;1011;999;999;930;894;934;1006;1084;1084;1140;1180;1207;1241;1241;1278;1299;1332;1360;1360;1345;1253;1145;1084;1084;1123;1166;1206;1238;1260;1260;1229;1245;1250;1241;1241;1212;1187;1181;1180;1180;1181;1155;1131;1113;1113;1069;994;896;831;762;762;698;645;701;760;760;808;850;960;1036;993;1038;1075;1132;1162;1162;1182;1207;1256;1277;1277;1284;1270;1239;1219;1245;1245;1266;1238;1225;1188;1188;1145;1092;1073;1048;1048;1043;1046;969;950;950;899;825;763;712;712;663;639;639;639;640;640;643;670;691;690;690;725;725;671;660;660;664;679;759;864;864;923;944;934;1007;1007;1104;1214;1288;1272;1257;1257;1243;1224;1188;1117;1111;1051;1050;1043;1012;1012;1009;975;1021;1011;1011;958;899;880;896;812;812;832;766;746;769;769;762;789;847;899;899;951;1008;1013;1098;1098;1119;1105;1058;1086;1086;1110;1093;1134;1166;1167;1167;1244;1347;1339;1290;1290;1235;1286;1353;1423;1423;1407;1422;1458;1500;1500;1509;1554;1555;1536;1536;1498;1475;1499;1585;1652;1652;1715;1766;1837;1898;1898;1945;1926;1915;1917;1917;1964;1998;2051;2107;2107;2167;2207;2147;2068;2023;2023;2001;1997;1980;1913;1913;1793;1693;1675;1628;1628;1562;1539;1558;1566;1566;1601;1640;1663;1735;1735;1798;1855;1903;1983;2097;2097;2174;2241;2232;2260;2260;2294;2314;0;0;0;0;0;0;0;0;0;0;0;0;0;0;0;0;0;0;0;0;0;0;0;0;0;0;0;0;0;0;0;0;0;0;0;0;0;0;0;0;0;0;0;0;0;0;0;0;0;0;0;0;0;0;0;0;0;0;0;0;0;0;0;0;0;0;0;0;0;0;0;0;0;0;0;0;0;0;0;0;0;0;0;0;0;0;0;0;0;0;0;0;0;0;0;0;0;0;0;0;0;0;0;0;0;0;0;0;0;0;0;0;0;0
0;0;0;0;0;0;0;0;0;0;0;0;0;0;0;0;0;0;0;0;0;0;0;0;0;0;0;0;0;0;0;0;0;0;0;0;0;0;0;0;0;0;0;0;0;0;0;0;0;0;0;0;0;0;0;0;0;0;0;0;0;0;0;0;0;0;0;0;0;0;0;0;0;0;0;0;0;0;0;0;0;0;0;0;0;0;0;0;0;0;0;0;0;0;0;0;0;0;0;0;0;0;0;0;0;0;0;0;0;0;0;0;0;0;0;0;0;0;0;0;0;0;1317;1280;1245;1245;1211;1177;1144;1117;1117;1082;1048;1021;1010;996;968;956;915;893;957;957;1008;1021;1004;992;992;1020;1035;1040;1066;1062;1101;1141;1169;1185;1185;1197;1214;1238;1221;1193;1193;1162;1136;1120;1084;1084;1048;1020;1000;966;966;909;861;816;775;775;725;677;633;578;578;529;520;494;449;416;416;385;342;340;334;334;405;416;367;361;361;364;353;328;285;285;273;273;337;392;392;450;515;573;636;718;718;760;744;700;642;642;596;549;530;558;558;606;651;636;586;586;540;518;480;480;481;481;527;560;560;584;596;634;680;755;735;735;735;769;793;804;804;800;819;813;772;746;744;782;756;771;800;800;800;780;815;825;825;828;894;961;996;996;980;953;931;947;947;986;1037;1095;1150;1150;1185;1234;1297;1318;1259;1259;1195;1164;1167;1189;1189;1218;1228;1176;1122;1122;1063;1007;993;1054;1054;1072;995;883;786;732;732;651;665;720;661;661;589;530;468;404;404;374;321;284;273;273;279;351;377;420;420;400;389;377;364;400;400;466;513;602;662;662;722;770;819;846;867;898;936;986;1037;1037;1080;1075;1057;1042;1011;1011;985;944;961;883;883;928;956;961;923;923;933;905;915;888;888;959;973;972;946;946;963;951;960;964;942;942;960;993;1040;1059;1059;1060;1080;1090;1140;1140;1181;1230;1278;1331;1331;1368;1401;1423;1464;1464;1492;1502;1541;1578;1603;1603;1628;1640;1640;1640;1640;1556;1482;1416;1359;1359;1280;1253;1253;1276;1276;1288;1280;1240;1173;1173;1120;1080;1043;992;973;925;949;981;1013;959;959;894;827;792;833;833;860;841;908;960;964;997;1033;1040;1094;1146;1146;1186;1219;1252;1280;1280;1305;1338;1345;1373;1373;1402;1423;1445;1470;1470;1487;1497;1506;1520;1520;1447;1382;1326;1269;1216;1216;1200;1200;1176;1101;1101;1048;1031;1003;960;960;942;965;1009;996;996;962;855;935;1011;1011;1069;1125;1165;1206;1236;1236;1253;1281;1316;1325;1325;1290;1232;1134;1084;1084;1093;1142;1174;1198;1149;1193;1183;1206;1209;1213;1213;1180;1157;1153;1162;1162;1167;1129;1103;1070;1070;1037;988;930;860;860;779;700;645;655;655;766;760;845;937;960;960;1019;1068;1119;1142;1142;1159;1185;1228;1249;1249;1253;1239;1170;1178;1178;1218;1221;1187;1178;1178;1148;1116;1075;1040;1040;1040;985;990;926;905;905;891;822;759;699;699;639;639;639;647;647;713;729;739;741;720;720;770;762;736;702;702;677;664;678;812;762;883;856;938;1042;1042;1138;1213;1277;1239;1239;1215;1206;1192;1150;1067;1067;979;1004;979;940;940;923;937;956;949;949;897;840;759;751;751;780;773;731;760;799;799;822;840;875;921;921;968;1048;1109;1136;1136;1179;1155;1099;1160;1160;1142;1144;1171;1220;1220;1244;1307;1361;1375;1337;1337;1277;1338;1401;1467;1467;1458;1482;1518;1552;1607;1605;1606;1588;1585;1585;1525;1514;1545;1567;1567;1635;1707;1775;1852;1929;1929;1960;1978;1958;1967;1967;1997;2043;2072;2136;2136;2203;2244;2183;2101;2101;2099;2063;2046;1987;1903;1903;1800;1745;1773;1707;1707;1612;1610;1572;1560;1560;1591;1627;1665;1737;1737;1809;1871;1944;2016;2016;2095;2130;2165;2210;2253;2253;2292;0;0;0;0;0;0;0;0;0;0;0;0;0;0;0;0;0;0;0;0;0;0;0;0;0;0;0;0;0;0;0;0;0;0;0;0;0;0;0;0;0;0;0;0;0;0;0;0;0;0;0;0;0;0;0;0;0;0;0;0;0;0;0;0;0;0;0;0;0;0;0;0;0;0;0;0;0;0;0;0;0;0;0;0;0;0;0;0;0;0;0;0;0;0;0;0;0;0;0;0;0;0;0;0;0;0;0;0;0;0;0;0;0;0;0
0;0;0;0;0;0;0;0;0;0;0;0;0;0;0;0;0;0;0;0;0;0;0;0;0;0;0;0;0;0;0;0;0;0;0;0;0;0;0;0;0;0;0;0;0;0;0;0;0;0;0;0;0;0;0;0;0;0;0;0;0;0;0;0;0;0;0;0;0;0;0;0;0;0;0;0;0;0;0;0;0;0;0;0;0;0;0;0;0;0;0;0;0;0;0;0;0;0;0;0;0;0;0;0;0;0;0;0;0;0;0;0;0;0;0;0;0;0;0;0;0;0;1296;1272;1237;1237;1204;1168;1133;1095;1095;1069;1040;1021;997;1016;993;942;920;886;940;940;992;1020;993;991;991;1020;1020;1029;1069;1069;1104;1140;1170;1187;1187;1200;1215;1240;1227;1227;1198;1170;1149;1119;1081;1081;1041;1000;972;948;948;910;857;810;769;769;724;686;641;584;584;528;512;493;445;445;404;376;360;345;320;320;320;320;320;320;320;320;312;308;287;287;273;273;332;378;378;432;502;572;649;649;709;733;720;682;634;634;589;544;520;548;537;590;616;623;573;573;532;491;480;480;480;480;505;540;560;607;607;653;717;710;671;671;686;734;768;768;768;767;792;778;721;721;719;760;736;766;766;800;782;760;793;800;800;844;880;954;962;962;936;922;920;947;947;987;1039;1091;1136;1136;1177;1224;1295;1308;1308;1250;1177;1139;1125;1152;1152;1179;1200;1170;1106;1106;1018;961;958;1006;1006;1050;974;863;774;774;703;632;622;702;702;655;590;541;474;419;419;389;344;294;273;273;277;315;345;390;340;356;346;360;363;363;428;447;505;604;651;651;716;761;786;843;843;897;953;984;1022;1022;1046;1015;1009;1005;1005;967;930;854;882;882;840;887;903;909;883;883;878;850;868;854;854;939;884;885;919;919;926;927;941;945;945;920;980;1014;1043;1043;1076;1107;1120;1120;1143;1143;1178;1215;1253;1298;1298;1342;1386;1405;1441;1441;1448;1493;1539;1574;1574;1603;1629;1640;1640;1621;1621;1542;1484;1398;1355;1355;1319;1258;1258;1217;1217;1243;1227;1190;1183;1183;1132;1065;1022;981;981;928;901;949;1000;949;949;882;816;770;817;817;834;841;908;954;954;969;1004;1054;1089;1089;1124;1165;1212;1244;1271;1271;1298;1304;1330;1353;1353;1378;1403;1432;1462;1462;1474;1481;1489;1496;1496;1480;1423;1343;1273;1273;1217;1190;1177;1158;1079;1079;1036;1019;986;926;907;875;902;965;953;953;856;852;943;999;999;1048;1120;1159;1195;1178;1202;1235;1267;1307;1302;1302;1285;1185;1126;1049;1049;1071;1114;1135;1114;1114;1137;1160;1200;1162;1162;1138;1130;1135;1134;1145;1145;1143;1079;1038;1032;1032;995;947;918;875;875;809;719;661;645;645;652;732;830;890;890;945;1004;1057;1097;1113;1113;1129;1159;1193;1225;1225;1183;1167;1127;1139;1139;1189;1198;1142;1124;1124;1107;1082;1052;1012;1012;1000;960;950;901;845;845;856;805;742;671;671;639;639;650;733;733;767;787;806;805;805;765;820;825;797;797;746;730;671;664;693;693;768;803;915;1035;1035;1083;1164;1250;1199;1199;1173;1162;1059;1093;1093;1027;930;924;906;897;897;861;886;867;859;859;774;731;731;731;731;731;731;735;765;765;808;855;887;906;962;993;1041;1075;1122;1185;1185;1222;1187;1145;1198;1198;1197;1214;1244;1269;1320;1339;1370;1440;1431;1431;1388;1320;1370;1439;1519;1519;1514;1551;1627;1658;1658;1658;1650;1627;1613;1613;1549;1547;1594;1602;1602;1640;1712;1772;1835;1835;1896;1974;2023;2009;2006;2006;2016;2077;2107;2159;2159;2227;2268;2190;2171;2171;2141;2111;2085;1984;1984;1883;1814;1819;1834;1834;1791;1708;1657;1620;1560;1560;1592;1625;1665;1732;1732;1800;1863;1942;2022;1998;2056;2103;2150;2199;2199;2249;2288;0;0;0;0;0;0;0;0;0;0;0;0;0;0;0;0;0;0;0;0;0;0;0;0;0;0;0;0;0;0;0;0;0;0;0;0;0;0;0;0;0;0;0;0;0;0;0;0;0;0;0;0;0;0;0;0;0;0;0;0;0;0;0;0;0;0;0;0;0;0;0;0;0;0;0;0;0;0;0;0;0;0;0;0;0;0;0;0;0;0;0;0;0;0;0;0;0;0;0;0;0;0;0;0;0;0;0;0;0;0;0;0;0;0;0
0;0;0;0;0;0;0;0;0;0;0;0;0;0;0;0;0;0;0;0;0;0;0;0;0;0;0;0;0;0;0;0;0;0;0;0;0;0;0;0;0;0;0;0;0;0;0;0;0;0;0;0;0;0;0;0;0;0;0;0;0;0;0;0;0;0;0;0;0;0;0;0;0;0;0;0;0;0;0;0;0;0;0;0;0;0;0;0;0;0;0;0;0;0;0;0;0;0;0;0;0;0;0;0;0;0;0;0;0;0;0;0;0;0;0;0;0;0;0;0;0;0;0;1264;1230;1230;1197;1165;1134;1105;1105;1079;1063;1042;1019;1019;994;942;906;880;880;922;980;1008;980;989;989;1020;1008;1047;1081;1081;1109;1140;1169;1186;1186;1200;1215;1240;1232;1232;1206;1181;1152;1121;1121;1096;1058;1011;961;925;925;899;854;806;765;765;724;687;645;590;590;533;481;480;438;438;401;388;340;340;324;342;355;356;354;352;352;334;316;280;280;280;273;273;325;360;360;423;493;565;637;637;689;702;692;660;660;621;582;539;487;523;523;558;580;574;559;559;518;480;480;489;489;480;488;520;573;573;630;701;691;647;634;634;682;734;758;733;733;743;759;723;690;690;705;736;726;742;742;781;752;720;760;760;798;845;905;940;933;933;895;883;916;944;944;987;1036;1085;1131;1129;1158;1216;1290;1288;1288;1216;1151;1115;1092;1092;1113;1140;1169;1162;1085;1085;999;929;921;970;970;1020;945;838;750;750;686;609;584;625;625;644;587;540;482;482;446;410;342;287;270;270;270;286;295;307;307;319;319;330;360;360;404;428;480;575;575;624;680;695;761;821;821;889;928;938;1003;1003;990;963;986;977;977;870;833;812;831;831;800;846;857;847;847;836;813;779;801;828;813;813;823;851;891;891;895;917;920;908;908;923;981;1013;1048;1049;1089;1119;1120;1120;1120;1138;1160;1193;1224;1279;1279;1349;1368;1396;1408;1408;1443;1484;1521;1567;1567;1607;1630;1636;1618;1618;1575;1505;1469;1394;1346;1346;1320;1291;1291;1215;1215;1191;1189;1140;1141;1141;1126;1120;1083;1001;1001;920;881;935;970;970;954;887;822;761;800;800;786;853;882;920;920;950;977;1050;1104;1104;1138;1175;1209;1234;1234;1235;1260;1285;1314;1314;1341;1361;1390;1423;1451;1451;1462;1464;1469;1472;1456;1471;1441;1365;1282;1282;1219;1185;1171;1157;1157;1073;1029;1001;947;888;888;826;840;911;920;920;822;856;922;993;993;1064;1120;1160;1162;1162;1190;1221;1261;1298;1298;1320;1295;1178;1113;1051;1051;1039;1033;1041;1097;1097;1065;1160;1144;1112;1112;1080;1097;1117;1116;1116;1126;1109;1061;1015;1002;1002;964;895;871;845;845;830;757;712;659;635;646;731;795;852;852;925;985;1036;1070;1070;1084;1111;1138;1187;1153;1153;1139;1120;1093;1104;1104;1155;1148;1102;1072;1072;1066;1045;1026;960;960;958;926;898;854;854;802;780;770;721;652;652;639;639;705;763;763;809;841;866;857;857;809;854;887;822;822;834;844;811;714;714;693;718;798;830;906;906;1084;1150;1182;1126;1126;982;968;976;1002;1002;978;910;860;835;835;819;804;785;791;789;745;731;731;736;746;746;754;746;770;800;800;842;875;937;1017;1017;1023;1093;1133;1139;1139;1212;1255;1228;1186;1231;1231;1255;1273;1350;1373;1373;1408;1412;1489;1479;1479;1413;1359;1420;1490;1490;1566;1586;1680;1690;1690;1709;1713;1687;1661;1610;1610;1569;1598;1601;1646;1646;1746;1752;1762;1833;1833;1899;1965;2046;2060;2060;2059;2059;2101;2148;2192;2231;2290;2287;2240;2200;2200;2135;2111;2085;2005;2005;1906;1874;1867;1866;1884;1801;1749;1701;1649;1649;1599;1591;1628;1668;1731;1731;1796;1871;1897;1965;1965;2049;2105;2152;2200;2200;2251;2285;0;0;0;0;0;0;0;0;0;0;0;0;0;0;0;0;0;0;0;0;0;0;0;0;0;0;0;0;0;0;0;0;0;0;0;0;0;0;0;0;0;0;0;0;0;0;0;0;0;0;0;0;0;0;0;0;0;0;0;0;0;0;0;0;0;0;0;0;0;0;0;0;0;0;0;0;0;0;0;0;0;0;0;0;0;0;0;0;0;0;0;0;0;0;0;0;0;0;0;0;0;0;0;0;0;0;0;0;0;0;0;0;0;0;0
0;0;0;0;0;0;0;0;0;0;0;0;0;0;0;0;0;0;0;0;0;0;0;0;0;0;0;0;0;0;0;0;0;0;0;0;0;0;0;0;0;0;0;0;0;0;0;0;0;0;0;0;0;0;0;0;0;0;0;0;0;0;0;0;0;0;0;0;0;0;0;0;0;0;0;0;0;0;0;0;0;0;0;0;0;0;0;0;0;0;0;0;0;0;0;0;0;0;0;0;0;0;0;0;0;0;0;0;0;0;0;0;0;0;0;0;0;0;0;0;0;0;0;1252;1252;1224;1193;1161;1131;1103;1103;1074;1058;1037;1016;1016;990;948;911;880;880;908;959;999;976;976;971;996;1015;1055;1089;1089;1114;1144;1168;1182;1182;1198;1218;1255;1236;1238;1214;1181;1151;1120;1120;1099;1075;1028;977;977;927;890;850;805;804;757;721;680;645;593;593;536;480;450;416;416;400;377;340;368;368;387;401;406;402;402;399;362;345;317;290;290;280;273;299;362;362;434;503;575;636;636;672;671;662;638;638;604;546;511;480;480;498;531;539;520;523;523;520;460;478;520;520;521;493;546;604;604;640;656;640;583;583;631;691;714;707;684;685;705;726;684;680;680;687;699;705;715;715;728;722;720;763;760;797;831;890;892;892;891;867;875;912;958;958;1000;1041;1084;1135;1135;1162;1211;1280;1249;1249;1192;1143;1100;1076;1076;1078;1099;1122;1076;1076;1075;987;917;883;937;937;1010;913;807;715;715;663;567;520;599;599;620;570;517;474;474;443;408;344;299;299;279;270;270;281;278;278;280;300;320;338;338;363;400;469;544;544;558;633;701;767;767;836;880;871;898;948;948;932;913;960;939;893;842;782;774;771;771;763;810;807;778;778;761;766;760;813;813;813;813;813;823;840;840;880;893;910;889;889;945;973;990;1045;1045;1086;1108;1120;1120;1120;1153;1160;1176;1209;1209;1270;1330;1346;1376;1403;1403;1441;1475;1508;1560;1560;1602;1620;1614;1586;1586;1542;1453;1396;1366;1366;1305;1273;1274;1274;1274;1241;1160;1149;1093;1096;1096;1071;1102;1044;936;936;932;875;896;926;926;951;915;840;761;760;763;795;840;880;900;900;928;981;1049;1106;1106;1140;1162;1191;1200;1200;1214;1241;1271;1304;1304;1330;1356;1389;1416;1416;1432;1443;1446;1434;1438;1438;1452;1447;1391;1301;1301;1231;1182;1162;1143;1143;1068;1024;978;926;926;876;800;805;876;876;882;809;862;919;984;984;1057;1117;1135;1147;1147;1179;1215;1244;1282;1282;1318;1262;1179;1107;1107;1050;992;986;1046;1052;1052;1043;1063;1104;1052;1052;1038;1088;1100;1099;1081;1088;1083;1039;1003;1003;960;894;862;824;824;804;797;761;695;600;600;634;705;766;826;826;895;963;1025;1048;1048;1054;1077;1106;1128;1128;1108;1087;1079;1059;1063;1063;1093;1089;1054;1030;1030;1027;992;973;944;944;920;902;843;793;793;754;721;716;684;684;639;641;673;739;794;794;844;889;921;897;897;855;896;914;877;921;945;928;921;829;829;693;693;732;803;803;932;1024;1067;1081;973;973;913;885;907;916;916;915;873;793;779;779;757;731;731;731;731;731;731;731;756;784;784;792;791;810;839;839;884;988;992;1071;1071;1086;1120;1182;1189;1189;1244;1298;1283;1243;1243;1274;1362;1409;1403;1437;1437;1455;1516;1546;1509;1509;1425;1423;1458;1501;1501;1626;1686;1720;1747;1747;1760;1752;1728;1695;1695;1626;1628;1635;1652;1743;1743;1792;1805;1814;1841;1841;1905;1970;2046;2104;2104;2110;2116;2135;2203;2203;2268;2319;2318;2246;2158;2158;2100;2084;2049;1983;1983;1934;1910;1962;1872;1872;1797;1749;1720;1638;1638;1600;1600;1638;1680;1680;1720;1801;1866;1943;2004;2004;2064;2121;2168;2216;2216;2254;2300;0;0;0;0;0;0;0;0;0;0;0;0;0;0;0;0;0;0;0;0;0;0;0;0;0;0;0;0;0;0;0;0;0;0;0;0;0;0;0;0;0;0;0;0;0;0;0;0;0;0;0;0;0;0;0;0;0;0;0;0;0;0;0;0;0;0;0;0;0;0;0;0;0;0;0;0;0;0;0;0;0;0;0;0;0;0;0;0;0;0;0;0;0;0;0;0;0;0;0;0;0;0;0;0;0;0;0;0;0;0;0;0;0;0;0
0;0;0;0;0;0;0;0;0;0;0;0;0;0;0;0;0;0;0;0;0;0;0;0;0;0;0;0;0;0;0;0;0;0;0;0;0;0;0;0;0;0;0;0;0;0;0;0;0;0;0;0;0;0;0;0;0;0;0;0;0;0;0;0;0;0;0;0;0;0;0;0;0;0;0;0;0;0;0;0;0;0;0;0;0;0;0;0;0;0;0;0;0;0;0;0;0;0;0;0;0;0;0;0;0;0;0;0;0;0;0;0;0;0;0;0;0;0;0;0;0;0;0;0;1240;1217;1188;1156;1121;1121;1086;1052;1040;1026;1008;1008;995;969;930;880;880;885;942;983;960;960;974;994;1024;1058;1058;1089;1114;1142;1171;1171;1182;1197;1226;1257;1231;1231;1211;1179;1143;1112;1112;1090;1071;1025;971;971;927;888;855;811;811;758;717;675;641;641;589;534;480;440;421;421;390;360;357;392;392;433;440;468;484;484;436;406;392;344;344;307;285;273;297;297;367;436;504;565;620;620;642;640;632;614;614;562;538;501;476;476;460;494;491;479;479;485;466;471;489;552;552;564;510;541;578;578;600;605;592;564;564;628;657;670;615;615;648;671;686;648;648;640;644;680;680;680;680;680;684;723;760;760;808;855;863;850;850;852;840;878;928;928;980;1034;1080;1120;1120;1157;1181;1237;1280;1231;1231;1174;1134;1092;1057;1057;1040;1018;1027;1029;1029;1035;976;900;848;848;906;960;886;784;699;699;608;559;484;574;574;599;547;489;453;453;420;394;351;309;320;283;270;270;270;270;278;297;300;314;346;346;384;434;481;556;556;608;667;734;799;799;820;839;815;872;872;892;883;880;862;826;826;825;762;735;720;720;735;764;770;720;720;760;764;849;858;858;858;855;839;828;828;840;853;880;870;909;909;920;949;973;1022;1022;1067;1094;1115;1121;1121;1138;1160;1201;1228;1228;1280;1319;1360;1396;1396;1417;1450;1477;1509;1550;1550;1600;1611;1605;1569;1560;1495;1440;1368;1337;1337;1257;1232;1226;1226;1226;1238;1189;1125;1120;1126;1085;1040;1064;994;971;971;945;872;836;862;862;894;904;813;760;760;723;800;828;862;862;880;927;983;1037;1096;1096;1129;1145;1163;1198;1198;1206;1240;1269;1290;1290;1322;1353;1379;1396;1396;1414;1406;1413;1418;1418;1421;1435;1440;1404;1328;1328;1241;1180;1160;1135;1135;1071;1010;970;907;907;854;791;792;879;879;848;760;850;932;932;980;1036;1088;1086;1138;1138;1179;1207;1235;1263;1263;1290;1253;1175;1121;1121;1061;1008;960;976;976;982;996;1033;1033;1005;1005;1015;1068;1033;1052;1052;1040;1002;1012;983;983;921;840;783;766;766;742;734;671;600;600;600;653;723;779;831;831;905;973;1012;1025;1025;985;1022;1084;1085;1085;1065;1044;1044;1035;1035;1026;1035;1032;1017;1017;954;952;966;942;888;888;854;877;828;760;760;700;671;661;639;639;648;686;723;781;781;825;882;936;959;935;935;921;939;948;981;981;992;996;986;907;907;791;693;701;809;809;916;960;887;928;928;905;868;811;845;852;852;851;777;731;720;720;720;763;773;762;762;734;736;760;788;788;819;834;843;856;884;884;954;1035;1053;1101;1101;1153;1168;1225;1237;1237;1266;1337;1322;1279;1350;1397;1404;1459;1463;1463;1478;1513;1559;1583;1527;1527;1492;1488;1472;1579;1579;1664;1716;1761;1797;1797;1805;1793;1767;1730;1730;1652;1686;1679;1733;1733;1768;1819;1858;1863;1870;1870;1925;1982;2053;2125;2125;2163;2209;2218;2248;2248;2298;2320;2265;2224;2224;2134;2100;2096;2047;2047;2007;2022;2009;1957;1862;1862;1789;1745;1706;1618;1618;1600;1606;1637;1682;1682;1740;1825;1888;1973;1973;2027;2082;2144;2192;2214;2214;2249;0;0;0;0;0;0;0;0;0;0;0;0;0;0;0;0;0;0;0;0;0;0;0;0;0;0;0;0;0;0;0;0;0;0;0;0;0;0;0;0;0;0;0;0;0;0;0;0;0;0;0;0;0;0;0;0;0;0;0;0;0;0;0;0;0;0;0;0;0;0;0;0;0;0;0;0;0;0;0;0;0;0;0;0;0;0;0;0;0;0;0;0;0;0;0;0;0;0;0;0;0;0;0;0;0;0;0;0;0;0;0;0;0;0;0;0
0;0;0;0;0;0;0;0;0;0;0;0;0;0;0;0;0;0;0;0;0;0;0;0;0;0;0;0;0;0;0;0;0;0;0;0;0;0;0;0;0;0;0;0;0;0;0;0;0;0;0;0;0;0;0;0;0;0;0;0;0;0;0;0;0;0;0;0;0;0;0;0;0;0;0;0;0;0;0;0;0;0;0;0;0;0;0;0;0;0;0;0;0;0;0;0;0;0;0;0;0;0;0;0;0;0;0;0;0;0;0;0;0;0;0;0;0;0;0;0;0;0;0;0;1222;1207;1184;1152;1101;1101;1071;1047;1021;1011;1011;996;995;980;952;883;883;880;927;932;960;960;980;996;1032;1060;1060;1085;1109;1139;1169;1169;1185;1197;1228;1262;1262;1230;1204;1177;1144;1109;1109;1079;1048;1008;957;957;940;905;868;829;829;778;725;678;644;644;602;542;485;469;469;441;388;360;360;417;417;469;495;521;516;516;469;443;394;353;357;316;286;273;295;295;359;424;496;558;558;598;612;612;603;560;560;547;526;492;457;457;440;446;449;440;440;445;440;453;577;577;595;600;520;520;542;542;560;574;551;563;563;614;617;596;600;600;615;644;640;640;640;669;662;679;680;680;705;728;751;760;760;760;783;821;813;811;811;820;848;891;929;929;960;1011;1056;1111;1111;1146;1173;1257;1262;1262;1212;1159;1119;1078;1051;1030;1003;999;981;980;980;981;942;886;840;840;875;952;843;763;733;657;592;523;475;475;531;580;523;462;428;428;396;363;341;320;320;301;268;264;268;268;291;300;300;323;323;354;406;527;583;612;612;653;706;760;786;786;770;787;794;830;830;838;797;837;802;802;764;783;746;710;710;680;694;726;744;720;720;773;820;881;907;907;904;893;870;866;866;868;852;882;912;912;954;922;960;971;971;1000;1031;1065;1082;1118;1118;1144;1189;1217;1249;1270;1302;1347;1377;1417;1417;1442;1463;1495;1530;1530;1571;1610;1637;1609;1555;1555;1480;1422;1356;1302;1302;1250;1209;1172;1172;1172;1198;1196;1139;1083;1083;1044;1040;1024;1000;1000;1012;967;915;806;824;824;859;867;840;785;785;729;784;815;827;827;864;918;977;1022;1022;1067;1115;1143;1163;1186;1186;1202;1228;1254;1280;1280;1309;1331;1353;1374;1355;1364;1387;1397;1402;1402;1403;1417;1424;1402;1402;1342;1249;1181;1150;1120;1120;1071;1006;950;893;893;840;760;800;863;863;812;760;816;878;878;936;1005;1071;1044;1044;1094;1145;1165;1205;1243;1243;1280;1260;1225;1138;1138;1078;1031;970;921;921;922;942;970;974;974;963;992;1029;984;1005;1005;985;948;959;957;957;898;827;774;696;696;628;630;627;581;581;642;679;738;796;796;859;915;967;993;994;964;953;1002;1049;1039;1039;1024;1010;1000;993;993;989;994;989;938;938;911;920;934;896;896;828;826;849;795;710;710;636;623;639;667;667;703;722;753;811;811;874;921;973;1000;1000;977;967;1044;1048;1048;1031;1030;1057;1051;997;997;833;703;693;785;785;752;761;784;828;828;803;782;751;753;753;799;778;720;720;720;754;780;807;826;812;812;792;788;812;815;815;862;887;894;910;955;974;995;1047;1110;1104;1104;1200;1205;1268;1292;1292;1324;1376;1363;1402;1402;1434;1458;1496;1517;1517;1510;1560;1594;1614;1614;1552;1542;1614;1560;1613;1613;1676;1744;1797;1841;1841;1846;1838;1810;1764;1764;1680;1761;1757;1784;1784;1799;1826;1886;1912;1912;1921;1953;1998;2072;2142;2142;2219;2249;2268;2299;2299;2346;2305;2234;2176;2176;2130;2120;2108;2064;2107;2078;2067;2009;1922;1922;1845;1781;1739;1686;1600;1600;1600;1618;1651;1707;1707;1748;1817;1898;1969;1969;2043;2103;2176;2219;2219;0;0;0;0;0;0;0;0;0;0;0;0;0;0;0;0;0;0;0;0;0;0;0;0;0;0;0;0;0;0;0;0;0;0;0;0;0;0;0;0;0;0;0;0;0;0;0;0;0;0;0;0;0;0;0;0;0;0;0;0;0;0;0;0;0;0;0;0;0;0;0;0;0;0;0;0;0;0;0;0;0;0;0;0;0;0;0;0;0;0;0;0;0;0;0;0;0;0;0;0;0;0;0;0;0;0;0;0;0;0;0;0;0;0;0;0;0;0
0;0;0;0;0;0;0;0;0;0;0;0;0;0;0;0;0;0;0;0;0;0;0;0;0;0;0;0;0;0;0;0;0;0;0;0;0;0;0;0;0;0;0;0;0;0;0;0;0;0;0;0;0;0;0;0;0;0;0;0;0;0;0;0;0;0;0;0;0;0;0;0;0;0;0;0;0;0;0;0;0;0;0;0;0;0;0;0;0;0;0;0;0;0;0;0;0;0;0;0;0;0;0;0;0;0;0;0;0;0;0;0;0;0;0;0;0;0;0;0;0;0;0;0;1200;1200;1170;1133;1093;1093;1054;1035;1004;989;989;974;979;976;953;953;892;873;901;933;973;973;980;996;1033;1060;1060;1084;1106;1133;1163;1163;1179;1195;1227;1248;1248;1232;1194;1168;1139;1139;1105;1072;1037;1000;963;998;969;931;887;843;843;795;741;682;638;638;600;548;505;478;478;442;392;360;373;373;418;498;542;579;546;546;500;445;394;360;360;320;283;273;310;310;374;446;500;545;545;568;579;548;539;539;532;526;504;444;437;437;414;440;440;444;444;440;491;538;590;590;637;599;541;520;520;520;544;537;520;555;555;580;569;598;600;600;600;600;640;657;657;705;705;702;680;680;720;747;781;800;800;778;760;775;800;800;800;805;840;876;891;891;945;983;1049;1102;1102;1135;1164;1258;1257;1257;1204;1151;1108;1045;1045;1008;1000;988;960;955;955;931;883;851;800;800;839;913;809;712;712;621;578;516;440;440;488;560;497;436;436;396;367;318;301;305;305;302;260;260;275;275;291;298;307;323;323;358;428;530;598;598;671;705;737;751;739;739;723;740;759;785;741;744;779;769;731;731;738;731;717;672;672;681;680;691;720;736;747;797;841;885;949;949;952;932;897;907;907;906;881;903;961;961;984;961;960;992;992;1024;1013;1050;1096;1096;1133;1181;1213;1280;1306;1306;1339;1370;1412;1440;1440;1469;1485;1517;1554;1554;1598;1635;1647;1597;1597;1540;1480;1422;1356;1356;1295;1255;1213;1160;1160;1160;1124;1120;1088;1080;1080;1095;1064;1000;1000;1000;1040;971;913;837;837;800;829;821;835;804;804;724;748;774;800;800;844;903;948;1014;1032;1057;1084;1117;1146;1146;1160;1178;1203;1230;1230;1253;1283;1302;1329;1320;1320;1360;1367;1373;1381;1381;1386;1402;1405;1385;1385;1330;1261;1178;1136;1136;1107;1070;1006;925;925;865;820;765;800;840;840;826;685;777;846;846;896;1000;1024;1000;1000;1055;1079;1112;1157;1157;1226;1238;1280;1258;1174;1174;1103;1041;1003;936;936;880;892;910;912;878;920;979;1000;934;934;956;918;889;901;901;901;861;765;703;634;634;594;572;567;581;581;656;711;771;823;823;867;913;948;934;934;922;918;971;1008;999;999;975;980;962;959;959;925;952;880;898;898;879;886;879;820;820;777;769;790;750;750;663;623;634;685;715;715;749;764;778;834;834;902;953;998;1036;1036;1072;1063;1082;1099;1099;1092;1086;1108;1075;1075;941;817;718;693;700;700;700;700;729;733;733;727;720;720;720;720;736;720;720;751;751;773;815;845;883;895;895;854;845;857;862;862;900;935;987;1012;1012;1022;1057;1080;1145;1145;1161;1205;1257;1314;1314;1351;1364;1454;1456;1413;1413;1486;1507;1538;1583;1583;1567;1615;1653;1637;1637;1650;1681;1670;1626;1626;1654;1719;1776;1831;1831;1872;1885;1871;1847;1776;1799;1763;1814;1800;1828;1828;1833;1876;1903;1958;1958;1961;2010;2015;2085;2108;2172;2240;2296;2324;2353;2353;2391;2324;2234;2180;2180;2147;2137;2190;2160;2160;2145;2074;1994;1905;1905;1835;1784;1730;1648;1648;1600;1611;1646;1675;1719;1719;1760;1821;1893;1970;1970;2045;2109;2196;2245;2245;0;0;0;0;0;0;0;0;0;0;0;0;0;0;0;0;0;0;0;0;0;0;0;0;0;0;0;0;0;0;0;0;0;0;0;0;0;0;0;0;0;0;0;0;0;0;0;0;0;0;0;0;0;0;0;0;0;0;0;0;0;0;0;0;0;0;0;0;0;0;0;0;0;0;0;0;0;0;0;0;0;0;0;0;0;0;0;0;0;0;0;0;0;0;0;0;0;0;0;0;0;0;0;0;0;0;0;0;0;0;0;0;0;0;0;0;0;0
0;0;0;0;0;0;0;0;0;0;0;0;0;0;0;0;0;0;0;0;0;0;0;0;0;0;0;0;0;0;0;0;0;0;0;0;0;0;0;0;0;0;0;0;0;0;0;0;0;0;0;0;0;0;0;0;0;0;0;0;0;0;0;0;0;0;0;0;0;0;0;0;0;0;0;0;0;0;0;0;0;0;0;0;0;0;0;0;0;0;0;0;0;0;0;0;0;0;0;0;0;0;0;0;0;0;0;0;0;0;0;0;0;0;0;0;0;0;0;0;0;0;0;0;0;1189;1163;1126;1087;1087;1056;1021;994;981;981;970;955;961;938;921;874;848;897;956;956;980;976;993;1028;1028;1054;1082;1101;1125;1152;1152;1176;1196;1227;1240;1240;1227;1187;1153;1130;1130;1100;1068;1037;1035;1035;1025;990;951;902;902;845;796;744;683;636;636;596;549;494;451;451;429;391;360;403;403;445;517;579;600;600;565;507;448;399;399;359;312;275;273;320;320;378;446;497;531;531;519;515;519;506;506;505;505;485;404;404;400;434;440;451;480;503;520;519;546;604;604;679;610;566;526;526;520;520;520;528;558;590;620;631;605;600;600;625;642;671;701;701;720;744;716;715;715;731;763;798;833;833;805;785;777;814;814;817;834;853;885;885;887;935;990;1059;1103;1103;1125;1161;1256;1262;1262;1205;1130;1056;1037;1037;1006;1009;1006;1003;1003;959;901;831;807;787;787;763;786;784;689;689;588;560;490;412;412;465;537;479;417;417;353;332;300;284;284;282;279;260;260;277;277;286;294;307;330;338;378;460;536;606;606;685;760;760;718;718;695;681;689;714;700;700;720;740;703;683;683;701;673;671;656;656;701;765;788;778;778;782;839;861;914;914;960;999;970;921;950;950;955;971;920;967;967;1005;989;1001;1000;1000;1036;1040;1055;1088;1088;1153;1225;1276;1341;1341;1344;1397;1402;1435;1472;1472;1497;1518;1546;1584;1584;1648;1680;1667;1608;1608;1533;1480;1420;1378;1378;1342;1292;1220;1167;1167;1195;1142;1120;1111;1125;1125;1143;1100;1018;1050;1050;1037;959;853;736;736;791;788;786;810;810;828;750;720;742;781;781;840;898;960;1004;1004;1030;1063;1095;1123;1123;1144;1160;1184;1206;1206;1219;1249;1243;1271;1271;1294;1336;1343;1358;1360;1360;1368;1379;1379;1364;1364;1291;1219;1154;1095;1095;1088;1076;1008;940;940;874;828;744;752;752;705;685;685;733;802;802;874;965;921;946;946;1007;1027;1070;1126;1110;1174;1240;1297;1283;1283;1213;1132;1071;1034;972;972;897;840;868;839;839;908;961;961;883;883;872;860;862;835;835;849;840;734;660;660;615;563;560;560;634;634;696;738;787;824;824;840;867;880;899;899;895;884;933;967;967;945;935;932;913;906;906;809;849;812;860;860;851;849;826;765;765;729;708;733;697;697;623;623;669;689;689;744;779;800;802;868;868;929;982;1033;1114;1114;1133;1113;1128;1144;1144;1139;1142;1160;1078;1078;905;895;775;727;727;700;700;700;700;705;705;720;720;720;720;720;707;720;751;773;773;809;848;887;927;927;952;931;901;921;899;899;973;1032;1045;1067;1067;1111;1123;1115;1196;1196;1222;1228;1296;1366;1366;1438;1442;1487;1502;1502;1474;1498;1560;1588;1612;1612;1619;1651;1692;1646;1680;1686;1733;1706;1716;1716;1675;1743;1806;1861;1861;1899;1925;1912;1890;1890;1828;1793;1864;1850;1873;1873;1879;1926;1925;1982;1982;1989;2050;2123;2140;2140;2200;2257;2317;2360;2360;2397;2400;2348;2285;2204;2204;2180;2247;2242;2200;2200;2144;2057;1967;1884;1884;1826;1777;1706;1640;1640;1640;1645;1666;1696;1696;1738;1781;1821;1889;1970;1970;2060;2177;2223;0;0;0;0;0;0;0;0;0;0;0;0;0;0;0;0;0;0;0;0;0;0;0;0;0;0;0;0;0;0;0;0;0;0;0;0;0;0;0;0;0;0;0;0;0;0;0;0;0;0;0;0;0;0;0;0;0;0;0;0;0;0;0;0;0;0;0;0;0;0;0;0;0;0;0;0;0;0;0;0;0;0;0;0;0;0;0;0;0;0;0;0;0;0;0;0;0;0;0;0;0;0;0;0;0;0;0;0;0;0;0;0;0;0;0;0;0;0;0;0
0;0;0;0;0;0;0;0;0;0;0;0;0;0;0;0;0;0;0;0;0;0;0;0;0;0;0;0;0;0;0;0;0;0;0;0;0;0;0;0;0;0;0;0;0;0;0;0;0;0;0;0;0;0;0;0;0;0;0;0;0;0;0;0;0;0;0;0;0;0;0;0;0;0;0;0;0;0;0;0;0;0;0;0;0;0;0;0;0;0;0;0;0;0;0;0;0;0;0;0;0;0;0;0;0;0;0;0;0;0;0;0;0;0;0;0;0;0;0;0;0;0;0;0;0;1182;1152;1115;1115;1076;1047;1019;993;962;962;953;920;938;892;892;864;842;916;968;968;980;960;988;1007;1007;1040;1068;1097;1120;1120;1145;1169;1197;1229;1240;1240;1223;1180;1139;1120;1120;1096;1064;1041;1040;1040;1030;1000;956;904;904;843;790;743;686;686;636;594;550;498;440;440;407;375;379;429;429;496;548;602;620;620;568;499;442;392;392;344;304;273;280;280;334;389;445;485;511;487;488;484;484;477;477;481;484;473;400;400;449;468;440;455;440;480;520;531;575;629;629;680;613;567;540;540;520;520;583;596;596;606;659;669;649;649;600;648;689;709;709;743;745;760;732;720;720;731;761;819;861;861;846;817;821;833;833;844;859;919;911;911;892;928;990;1049;1049;1091;1114;1158;1250;1262;1262;1195;1107;1089;1046;1046;1038;1038;1037;1036;1036;985;916;844;800;800;765;733;736;755;755;656;568;537;479;400;400;437;518;459;373;373;336;316;284;275;275;274;270;260;260;260;277;280;293;318;344;344;393;475;551;618;618;690;760;746;689;689;653;640;634;655;655;669;714;682;628;640;640;653;644;644;678;678;718;823;852;847;847;843;878;889;953;953;979;1021;1009;960;960;1024;1040;1000;931;931;983;1034;1016;1030;1025;1025;1036;1040;1084;1109;1144;1164;1228;1314;1396;1396;1432;1425;1440;1468;1468;1510;1534;1557;1575;1648;1648;1690;1710;1680;1627;1627;1566;1520;1452;1415;1415;1367;1310;1237;1190;1190;1190;1179;1162;1167;1167;1181;1189;1161;1079;1080;1080;1015;932;817;724;724;748;742;760;785;785;805;764;700;723;723;786;845;911;941;970;970;1009;1044;1072;1099;1099;1128;1144;1158;1174;1174;1159;1190;1209;1236;1236;1276;1312;1321;1343;1343;1346;1349;1360;1360;1355;1322;1258;1198;1139;1083;1083;1053;1059;1028;959;959;899;850;793;809;809;738;722;688;685;685;769;858;903;863;915;915;969;989;1050;1125;1125;1183;1246;1311;1296;1296;1240;1156;1105;1057;1057;1001;916;849;800;835;835;897;938;929;849;849;831;811;840;782;782;816;783;730;641;641;581;541;563;623;623;661;720;736;777;795;750;777;840;844;858;858;866;848;896;934;934;919;886;871;867;796;769;736;796;750;750;806;791;794;748;704;704;680;647;662;623;623;623;643;698;729;729;763;810;830;834;834;890;951;1026;1095;1095;1149;1179;1163;1177;1187;1187;1205;1212;1192;1088;1088;973;965;864;749;749;700;720;740;715;715;705;737;757;779;772;772;808;813;814;800;800;845;873;921;960;960;1002;987;969;981;1036;983;994;1072;1100;1105;1105;1166;1158;1165;1200;1200;1271;1289;1316;1391;1391;1454;1493;1534;1540;1540;1510;1517;1582;1628;1628;1656;1673;1695;1760;1703;1703;1732;1769;1779;1757;1757;1716;1764;1843;1890;1890;1921;1979;1969;1915;1915;1848;1827;1898;1900;1900;1917;1924;1963;1960;2006;2006;2091;2110;2173;2182;2182;2225;2283;2315;2349;2349;2389;2410;2373;2335;2335;2334;2301;2280;2270;2270;2200;2128;2056;1971;1880;1880;1818;1769;1683;1643;1643;1664;1667;1686;1713;1713;1756;1804;1854;1917;1917;2000;2070;2172;2222;0;0;0;0;0;0;0;0;0;0;0;0;0;0;0;0;0;0;0;0;0;0;0;0;0;0;0;0;0;0;0;0;0;0;0;0;0;0;0;0;0;0;0;0;0;0;0;0;0;0;0;0;0;0;0;0;0;0;0;0;0;0;0;0;0;0;0;0;0;0;0;0;0;0;0;0;0;0;0;0;0;0;0;0;0;0;0;0;0;0;0;0;0;0;0;0;0;0;0;0;0;0;0;0;0;0;0;0;0;0;0;0;0;0;0;0;0;0;0;0
